x y z
-0.018674 0.245336 0.518436
0.010860 0.012314 0.959377
0.001193 -0.281720 0.445929
-0.079871 -0.060731 0.776820
-0.008304 0.003635 0.991368
0.102025 -0.395370 0.147519
0.004529 0.009808 0.985938
-0.002013 0.003354 0.988913
0.001704 -0.353901 0.272513
-0.000742 -0.010211 0.979447
-0.172189 0.132729 0.554471
-0.222064 -0.397232 0.079700
-0.191122 -0.302789 0.273963
-0.347744 0.224407 0.183204
0.094530 0.089011 0.734632
0.248346 0.331201 0.145276
-0.221333 -0.038326 0.542216
-0.128352 -0.371299 0.215610
0.051858 -0.230163 0.525608
0.337619 0.050759 0.318893
-0.188899 0.433670 0.068356
0.000559 -0.005088 0.973576
-0.082359 0.448392 0.094420
-0.006606 -0.063345 0.845280
0.068819 -0.110320 0.761780
-0.265570 -0.287522 0.208951
0.135377 -0.053174 0.678799
0.004862 0.009531 0.975341
-0.093617 0.041677 0.785697
0.241104 0.397214 0.071532
-0.032533 -0.033604 0.877540
-0.243957 0.030602 0.495573
-0.364495 -0.217391 0.166654
0.049038 0.035632 0.856196
-0.143630 -0.048775 0.688128
-0.298455 0.349806 0.065837
-0.002970 0.019321 0.958486
-0.051260 -0.046309 0.843906
-0.398941 0.227757 0.082965
-0.175102 0.238694 0.414008
0.348054 0.128833 0.245478
0.016825 0.045964 0.915321
-0.013822 -0.135426 0.710269
0.236402 0.016438 0.524925
-0.039014 0.322337 0.356799
0.201388 -0.061883 0.550032
-0.022643 -0.088644 0.803579
-0.142159 0.093094 0.646106
0.013805 -0.095976 0.782093
0.003979 -0.010324 0.987774
0.114076 0.297179 0.353496
-0.002037 0.006372 0.996451
0.082241 0.471761 0.067182
0.396921 -0.094888 0.180497
0.013081 -0.002499 0.983674
0.003497 -0.007735 0.989251
-0.063741 -0.119851 0.715238
0.015440 0.003538 0.982063
-0.091203 -0.139585 0.645745
-0.004433 -0.006894 0.970175
-0.023414 -0.171519 0.640954
0.196066 0.321816 0.264794
-0.017958 -0.000286 0.966800
0.074285 0.367839 0.262426
-0.014414 -0.414059 0.144156
-0.387091 0.117100 0.190522
0.008171 0.056127 0.885182
-0.006846 0.004465 0.980741
-0.341993 -0.048519 0.294557
0.176371 -0.262911 0.354596
-0.046157 0.038551 0.871635
-0.392480 -0.070645 0.182987
-0.158308 -0.173215 0.515364
0.098895 -0.011265 0.780107
-0.172043 0.375237 0.175906
0.039698 -0.012107 0.902160
0.014016 0.023714 0.940177
0.020113 0.416931 0.159915
0.199640 -0.169110 0.458826
0.015700 -0.469479 0.038635
0.031155 0.169334 0.671058
-0.009235 -0.006508 0.953815
0.389667 -0.246737 0.052504
-0.348393 -0.317669 0.061669
-0.228409 0.180992 0.409764
0.089372 -0.143114 0.654505
0.120397 -0.166884 0.595792
-0.047847 0.001299 0.873022
0.173444 0.000509 0.636813
0.115182 0.210432 0.518219
-0.088456 0.150533 0.641370
0.283827 0.156367 0.354689
0.016081 -0.010432 0.955142
0.004760 -0.028786 0.933988
-0.023638 0.205909 0.595169
-0.128759 -0.422274 0.082023
-0.001842 -0.005507 0.971675
-0.232602 0.094815 0.493136
0.390239 0.257209 0.063337
0.041819 -0.008819 0.898822
0.316974 0.225716 0.195523
-0.184972 -0.009216 0.652950
-0.278225 0.220836 0.280241
0.093661 0.025933 0.812466
0.198971 0.243913 0.367545
-0.065182 0.018600 0.857295
-0.009057 0.102759 0.810489
-0.339895 0.095859 0.288441
-0.013850 0.118157 0.748253
0.403806 0.040433 0.172045
-0.110016 -0.253362 0.437033
-0.283152 0.110766 0.395812
-0.109800 -0.087433 0.714284
0.005139 0.001597 0.990808
-0.005246 -0.051030 0.885899
-0.017239 -0.041080 0.912698
0.005343 0.002904 0.976620
0.004733 0.005061 0.976479
-0.431801 -0.191656 0.057951
0.013633 0.011054 0.968873
-0.035397 0.061395 0.853215
0.062168 0.101579 0.761858
0.000957 -0.002118 0.994952
0.318624 -0.087697 0.364598
-0.061142 -0.225808 0.516997
0.354392 -0.054148 0.277830
-0.051351 0.039860 0.871420
0.085163 -0.120113 0.704493
0.438467 -0.133841 0.056115
0.133506 0.146809 0.586813
0.115056 -0.185955 0.563961
0.080696 0.162019 0.651958
-0.017918 0.029902 0.950498
0.009654 0.003541 0.989985
0.457860 0.033154 0.073633
-0.183546 -0.053572 0.601355
-0.008631 -0.004538 0.980612
0.258637 -0.382240 0.064318
0.082707 -0.081253 0.780545
-0.198563 0.032280 0.599277
0.044156 0.265268 0.455962
-0.238875 -0.105605 0.464281
0.181509 -0.145043 0.512424
-0.450917 0.101659 0.069776
0.024365 -0.037440 0.879098
0.022302 -0.063514 0.833048
-0.164218 0.197323 0.486938
0.258625 0.111037 0.432034
-0.095371 -0.036654 0.798657
-0.390808 -0.001435 0.196645
0.003192 -0.016994 0.918558
0.012034 0.005366 0.988749
-0.166406 0.310166 0.297830
0.110720 -0.247896 0.430070
0.289965 -0.217937 0.277549
-0.118460 -0.157661 0.603338
0.041215 0.040739 0.895562
-0.083618 0.207146 0.554708
0.144830 0.110299 0.629038
-0.303327 -0.173075 0.308876
0.214106 -0.293109 0.268415
-0.006286 -0.003515 0.985282
0.027811 -0.001527 0.937739
0.181729 0.128378 0.538406
0.161698 0.374163 0.193384
-0.263783 -0.146907 0.391154
0.182807 0.062912 0.612410
-0.030201 0.018920 0.903180
0.238431 -0.310150 0.192090
0.124412 0.071022 0.694055
-0.010602 -0.003578 1.008123
-0.004360 -0.000249 0.988696
-0.202636 -0.100071 0.540173
0.055310 -0.022074 0.854170
-0.094787 0.099763 0.701595
-0.253917 0.298425 0.206575
-0.040495 0.287010 0.423184
0.150904 -0.104186 0.606599
-0.011529 0.014134 0.997451
0.247889 -0.173777 0.384642
-0.134083 0.021623 0.730849
-0.456291 -0.047116 0.073631
-0.011148 -0.009302 0.986352
-0.089852 -0.319662 0.323903
0.286618 0.025745 0.413349
0.076788 -0.306321 0.367696
-0.223640 -0.203246 0.382089
0.159900 -0.421343 0.075036
0.335461 -0.235853 0.181135
-0.066380 0.369166 0.257151
0.197899 0.174834 0.458193
-0.076783 0.108324 0.747934
-0.029478 0.174756 0.668299
-0.296369 -0.011108 0.406265
0.137651 0.011051 0.705432
0.065569 0.195557 0.587733
0.259534 -0.072969 0.431315
0.025669 0.061743 0.847029
0.439076 0.142716 0.075500
0.110736 -0.341133 0.270686
