-0.011614 -0.637265 -0.207585
-0.477287 -0.504451 0.231637
-0.435877 -0.051316 0.117960
-0.008142 -0.734807 0.206835
-0.451939 -0.500781 0.080832
-0.008489 0.649304 0.166959
-0.421343 -0.367442 -0.015574
0.086235 0.329636 0.942253
-0.304756 0.584093 0.254637
-0.454379 -0.503877 0.385807
-0.427988 -0.617833 0.357835
0.147739 0.274341 0.905513
-0.178283 -0.501215 0.697623
-0.460468 -0.344657 0.078110
-0.445677 -0.201719 0.084079
-0.177409 -0.772502 0.380102
-0.488316 -0.348837 0.232558
-0.472992 -0.352331 0.389716
-0.244186 -0.281490 -0.154711
-0.481880 -0.197249 0.223770
-0.480331 -0.198208 0.389516
-0.432878 0.436791 0.548027
-0.466372 -0.033039 0.229070
-0.476451 -0.035364 0.384466
-0.433359 -0.644393 0.232065
0.344182 0.273284 0.748663
-0.176540 -0.734083 0.211319
-0.434451 -0.342470 0.506978
-0.441283 -0.195294 0.530808
-0.377348 0.274143 0.728406
-0.436504 0.117111 0.240369
0.159930 -0.215732 0.762338
0.144728 -0.349966 -0.210413
-0.310693 -0.343928 0.671173
-0.422625 0.248637 0.278249
-0.443507 -0.034581 0.546111
0.326502 0.120603 0.732230
-0.379503 0.288672 0.213992
0.142246 -0.674031 -0.078125
-0.457706 0.132190 0.379590
0.353362 -0.706250 0.432891
-0.418523 0.566949 0.546512
0.230232 0.831663 0.495349
0.224510 0.014353 0.795584
-0.442848 0.127500 0.547457
-0.418002 0.284355 0.650106
-0.340446 -0.033189 0.711278
-0.328920 -0.202908 -0.067988
0.295336 -0.783966 0.385872
0.142740 0.429612 0.103706
-0.440005 0.278576 0.380000
-0.440232 0.277642 0.553097
-0.423868 -0.634752 0.108910
-0.414663 0.069767 0.151163
-0.423792 -0.469887 0.487021
-0.424098 -0.447674 -0.010400
-0.427027 0.418117 0.403907
-0.383515 0.428990 0.731972
-0.405534 0.642014 0.546681
-0.208737 0.609813 0.909373
-0.386739 -0.356346 0.585214
-0.341077 -0.732727 0.218924
-0.378560 0.598877 0.374245
0.206532 0.500000 0.168764
-0.415501 0.538760 0.437984
-0.354932 -0.700049 0.074966
-0.338186 0.431937 0.226107
-0.345763 -0.755906 0.254519
0.385602 0.702787 0.544184
-0.362454 -0.511270 0.561777
-0.384996 -0.680344 0.401617
-0.406701 -0.563085 0.009992
-0.414301 0.534884 0.639535
-0.338438 -0.499331 -0.087853
-0.339747 -0.345571 -0.097990
-0.399700 -0.210232 0.606854
-0.401348 -0.166823 0.015429
-0.372771 -0.018943 0.043438
-0.407714 -0.096899 0.619614
-0.334335 0.123799 0.080184
-0.364571 0.124187 0.716043
-0.400629 0.163756 0.181582
-0.415515 0.151163 0.639535
-0.416996 0.430233 0.651163
-0.325382 -0.646262 -0.070581
-0.400706 0.460712 0.337951
-0.380574 0.595178 0.715325
-0.180658 -0.672765 -0.088882
-0.325874 -0.774933 0.378444
0.461596 -0.191995 0.226874
0.143254 -0.502685 -0.206470
-0.323464 0.732402 0.700924
-0.316674 -0.654279 0.536652
0.455345 -0.197498 0.386893
0.058140 -0.267442 0.781205
-0.324722 -0.195145 0.695553
-0.320997 0.753780 0.385611
0.394453 -0.758584 0.223136
-0.341927 0.762302 0.544612
-0.301342 -0.049881 -0.037566
-0.303128 0.267066 0.115702
-0.286521 -0.483858 0.649456
0.299492 0.128213 0.072743
-0.298905 0.280332 0.826047
-0.305317 0.427273 0.840743
0.454196 -0.028749 0.384057
-0.304641 0.593039 0.839702
-0.286228 -0.771366 0.498969
-0.282980 0.135811 0.808531
-0.282692 0.695475 0.814524
0.381174 0.011628 0.635718
-0.275338 0.385510 0.141246
-0.274980 0.708807 0.283989
0.230897 0.834723 0.423588
-0.265111 0.017442 0.793247
-0.268475 0.059442 -0.012445
-0.267442 0.829783 0.418605
0.386021 0.133900 0.653532
-0.174952 -0.790718 0.541856
-0.150532 -0.750831 0.286736
-0.211090 -0.702023 0.602198
-0.174201 -0.707000 0.081804
-0.160686 -0.642753 0.655643
-0.244186 -0.534884 -0.159174
0.139345 0.811674 0.568929
-0.169304 -0.497077 -0.196467
-0.173147 -0.347111 -0.195181
0.130962 -0.233641 -0.180130
-0.009352 -0.705987 0.081004
-0.179450 -0.348579 0.740377
-0.191855 -0.179081 -0.140692
-0.206460 -0.217866 0.768178
-0.178668 -0.033910 -0.096291
-0.128767 0.441399 0.949146
-0.245503 -0.097772 0.778809
-0.178511 0.127143 0.866462
-0.175901 -0.032308 0.826092
-0.166672 0.112629 -0.036417
-0.225129 0.169795 0.014534
-0.180583 0.281909 0.044635
-0.180686 0.277964 0.900212
-0.176590 0.429220 0.103769
-0.207555 0.425862 0.912765
0.254925 0.706493 0.821612
-0.244186 0.488372 0.160550
-0.194432 0.610475 0.186328
-0.175420 0.752595 0.244105
-0.171267 0.712388 0.849846
-0.175141 0.764305 0.705670
-0.013082 0.758171 0.209165
-0.236178 0.817141 0.327662
-0.175652 0.810425 0.552916
-0.170472 0.848283 0.387696
-0.174419 0.833536 0.476744
-0.159365 -0.622915 -0.191442
-0.145160 -0.177042 0.800364
0.428034 0.282669 0.543218
-0.137971 -0.237858 -0.174634
-0.142814 0.550384 0.140027
-0.134512 0.579234 0.952294
-0.129612 0.842835 0.287444
0.336845 -0.016443 0.037022
-0.112403 0.211264 -0.009920
-0.104651 0.343423 0.940630
-0.012099 -0.797431 0.556514
0.296988 0.758652 0.382001
-0.010404 -0.774615 0.384390
0.265946 0.282753 0.834151
0.140609 0.756800 0.244570
-0.021151 -0.753064 0.284590
-0.011597 -0.668204 0.667485
-0.013022 -0.677016 -0.073381
-0.016177 -0.501342 -0.230010
-0.012491 -0.501745 0.722608
-0.014264 -0.343478 -0.223908
-0.011695 0.572667 0.134194
-0.011484 -0.342207 0.763462
0.281022 0.595307 0.851068
-0.010933 -0.213941 -0.182549
-0.012145 -0.188783 0.808736
-0.018604 -0.128364 -0.156624
-0.011558 -0.036762 -0.124126
-0.012987 -0.029710 0.855510
-0.011792 0.124878 -0.055654
0.377068 0.686047 0.453488
-0.010585 0.130198 0.900297
-0.009279 0.228675 -0.012073
-0.020372 0.239065 0.928416
-0.012179 0.303540 0.018494
-0.081395 0.662791 0.938457
-0.012420 0.305839 0.945875
-0.012952 0.438416 0.075364
-0.014511 0.425997 0.968239
0.315918 -0.761535 0.252897
-0.011318 0.605613 0.965787
-0.012171 0.713210 0.863465
0.225355 -0.498157 -0.171488
-0.011628 0.762346 0.704558
-0.013908 0.809769 0.560636
-0.011624 0.848523 0.271941
-0.011628 0.856881 0.389971
-0.001938 0.833390 0.486434
0.139084 -0.793808 0.553170
0.141037 -0.776893 0.384462
0.139907 -0.730011 0.230289
0.081395 -0.744665 0.290698
0.130492 -0.645495 0.654286
0.139159 -0.697393 0.079713
0.142244 -0.632000 -0.202503
0.387784 -0.242753 -0.021177
0.142982 -0.501723 0.690593
0.308130 -0.504614 -0.105859
0.142621 -0.351016 0.731576
0.374684 -0.104651 0.616279
0.110238 -0.165552 0.797936
0.155391 -0.159808 -0.143886
0.242305 -0.620516 -0.177358
0.144010 -0.034432 -0.095995
0.139219 -0.033510 0.824961
0.132545 0.113828 -0.035862
0.360465 -0.746844 0.151163
0.142838 0.126078 0.867780
0.081395 0.215686 -0.008769
0.144007 0.834896 0.491055
0.145379 0.281893 0.039441
0.112251 0.442288 0.952206
0.108294 0.545359 0.142918
0.115299 0.582052 0.954400
0.392870 0.265554 0.266712
0.154585 0.606689 0.190266
0.174348 0.613086 0.921209
0.140861 0.716705 0.858570
0.137668 0.769867 0.711488
0.096155 0.844992 0.287852
0.140557 0.849797 0.386246
0.170222 -0.712322 0.607689
0.386677 0.583979 0.430714
0.180651 0.176160 0.009654
0.179488 0.418161 0.920035
0.260389 -0.732091 0.206842
0.199205 -0.097518 0.778623
0.199329 0.818679 0.321616
0.253362 -0.783704 0.506743
0.288591 -0.661072 0.544910
0.292502 -0.714012 0.081353
0.301410 -0.661980 -0.089960
0.220930 -0.593023 0.630036
0.242818 -0.484080 0.646343
0.239641 -0.348595 -0.175178
0.265408 -0.344355 0.666098
0.220930 -0.267442 -0.166783
0.393925 -0.479287 -0.029001
0.283882 -0.192046 0.689055
0.295647 -0.197183 -0.086297
0.323090 -0.346872 -0.119570
0.265105 -0.050266 -0.040207
0.301439 -0.039530 0.714854
0.229428 0.066251 -0.011908
0.247151 0.139102 0.812647
0.267527 0.270570 0.108720
0.239895 0.389196 0.139358
0.280213 0.432970 0.850120
0.302837 0.435068 0.226124
0.265086 0.585614 0.256136
0.236704 0.720907 0.284963
0.297974 0.746515 0.706802
0.308975 0.786815 0.548749
0.321083 -0.509327 0.577620
0.344598 0.289126 0.200597
0.342485 0.603928 0.354300
0.345287 -0.353041 0.592873
0.359476 -0.214913 0.608683
0.357717 0.425785 0.756987
0.358001 0.601681 0.754556
0.394599 -0.492980 0.498244
0.363951 -0.135424 0.007399
0.363950 0.186047 0.169672
0.363421 0.470915 0.325851
0.392383 -0.645131 -0.033782
0.384357 -0.756643 0.326720
0.417217 -0.668851 0.077273
0.391473 -0.747321 0.143411
0.442715 0.131042 0.380020
0.409098 -0.650799 0.374782
0.383456 -0.604447 0.476379
0.404299 -0.347985 -0.037859
0.401790 -0.347033 0.514919
0.408710 -0.195377 0.531066
0.424375 -0.197696 0.077240
0.401900 -0.045563 0.111388
0.415775 -0.035543 0.551420
0.385414 0.074359 0.141583
0.411500 0.125766 0.229767
0.393614 0.283629 0.664492
0.380141 0.360465 0.296967
0.395161 0.430606 0.673782
0.400664 0.426442 0.391328
0.389764 0.589904 0.678222
0.382100 0.688989 0.648910
0.433315 -0.660429 0.235673
0.447408 -0.503214 0.076373
0.445240 -0.505983 0.391251
0.441213 -0.034353 0.230068
0.424653 0.129051 0.554070
0.424915 0.281422 0.381789
0.405353 0.588472 0.546566
0.452100 -0.350948 0.393418
0.458152 -0.349145 0.076056
0.418705 0.430233 0.546512
0.478992 -0.501970 0.237794
0.479350 -0.344874 0.236316
