2.711442 1.770616 41.673321
0.964606 -1.239682 39.691978
0.036324 -0.105015 41.080414
0.645590 1.935649 41.343880
1.497033 -0.482583 39.105156
0.752576 -0.525951 41.455101
1.226634 -0.485981 41.315216
1.682180 0.518227 39.392986
2.634117 1.203756 40.454872
2.596966 1.924173 40.425022
2.546936 1.689506 40.736416
0.159419 0.658820 39.500618
1.564374 -2.149225 40.027390
0.581943 -0.560742 40.271408
1.017277 1.868836 41.667736
0.927107 -0.167920 40.060802
-0.178817 0.456382 40.646957
1.125868 2.029901 38.987629
2.360252 0.602971 41.476379
0.669085 0.242485 41.506866
1.861468 1.838981 41.343204
1.314602 -2.460815 40.313190
2.621325 0.503392 40.172249
0.146814 1.884250 40.124638
-0.109050 2.137661 40.381107
-0.503688 0.837723 41.521782
0.879888 0.008967 39.747864
0.378422 -0.742567 40.967365
1.675891 1.797730 39.405315
-0.188407 1.446219 40.525047
1.889210 -1.337867 40.938667
2.733416 1.247229 41.398243
0.338464 0.861241 38.911140
0.537208 0.964263 41.583256
0.825323 -1.190700 41.300243
1.832799 -0.906496 40.520969
1.290501 0.242270 38.740791
1.573940 -0.299323 39.376041
0.007183 1.024291 39.085705
1.505195 1.783206 40.815575
0.118994 1.789979 39.016411
2.432203 2.112259 40.946747
-0.121443 1.864844 39.607769
0.305383 0.576968 41.610123
2.697864 2.045826 40.071644
1.794813 1.762455 40.718651
2.340938 -0.167481 40.975292
0.206332 -0.323775 39.790325
2.167840 1.393712 41.342747
0.947111 0.262989 38.930073
0.118894 1.960394 39.378872
2.157388 1.846228 40.631863
1.517515 1.883587 40.154209
-0.312656 1.039728 41.341286
-0.081147 1.959795 40.837078
-0.362064 1.113577 39.863319
2.599049 0.992715 41.905552
2.578594 0.398886 39.069424
0.991800 -0.141579 38.699890
0.020880 0.017078 39.059811
2.269772 2.163508 39.541634
1.707494 0.025905 39.078430
1.899272 -0.213536 39.793457
2.129432 -0.100973 39.372223
-0.133884 1.989088 41.295094
0.429205 0.572878 39.948040
1.068660 1.482801 39.109276
2.487287 1.759554 39.014950
1.102696 1.850444 39.240925
0.211799 -1.124124 40.918915
-0.170089 0.910673 38.895035
2.260717 1.617862 41.931683
-0.355954 0.794161 41.022278
1.459863 -2.322759 40.632149
1.166722 -1.919971 40.468380
1.612472 -1.015361 40.183144
2.079210 0.494721 38.591366
0.261905 1.806047 41.059441
-0.105069 0.038776 40.378620
-0.152139 1.595084 39.289276
0.527310 -0.969196 41.217503
0.524020 -0.243391 39.594036
0.655375 -0.024835 38.612396
1.849927 1.556019 41.944958
0.295623 1.101861 38.769970
2.151590 -0.125518 39.038696
0.082604 0.174916 41.153271
0.112830 1.291649 38.969185
1.695374 0.508560 39.659271
2.789553 2.032730 38.955414
1.246776 -1.094239 39.825504
2.327421 1.325797 39.014549
2.636636 0.784866 39.461590
1.533443 -1.775285 40.372974
1.357002 -0.170914 39.764378
0.510922 -2.034278 40.026554
0.502111 2.146612 39.288109
2.220706 2.241608 39.103161
1.361514 -1.930205 39.863674
0.833552 1.343248 41.642494
2.062027 0.392879 41.821304
1.680142 -1.316718 40.558426
-0.273054 1.314715 41.042919
2.720786 1.506348 40.126411
0.554526 -0.123081 39.116192
-0.115266 0.489153 41.340069
2.526611 2.306011 39.799950
0.601322 2.027963 40.778831
2.390430 1.514749 39.274151
0.241666 0.425678 40.947193
0.061365 0.264522 38.879398
1.437065 -0.825031 40.078430
1.896608 2.098007 39.904041
0.364204 -0.816458 40.444344
0.878758 -0.045786 39.344460
2.842534 1.781674 40.275040
0.823930 0.640331 41.529243
0.408089 -0.177037 38.898258
2.033524 1.148929 41.794788
0.977577 -0.422929 38.619522
2.261690 0.118204 40.188217
1.836820 -0.341477 39.221188
-0.057004 0.752597 39.153706
2.694547 2.040340 39.710644
1.660616 0.711730 41.898350
0.271811 0.088223 40.441696
0.774814 -0.787325 41.347370
2.646286 1.389596 40.680080
1.983090 0.502701 41.287659
0.772685 -1.957440 40.386642
1.941091 1.982745 40.800480
1.871333 1.590214 39.315243
1.402712 2.122657 39.767429
1.902406 2.309111 39.404358
2.508296 0.872386 41.339752
1.860448 1.911252 39.648857
1.391589 1.253765 39.235615
0.842178 2.138335 39.880127
-0.370028 1.666296 40.053143
0.283466 0.340510 39.970543
1.477239 -2.104250 40.433651
2.320740 0.107488 40.602345
2.216562 0.630877 41.697880
0.702670 -0.042341 41.596466
0.358913 0.678425 41.362328
0.287266 2.116160 40.002300
-0.199495 0.604255 39.712376
2.734426 1.586454 39.564503
-0.155130 1.527277 41.951000
0.055076 2.001968 40.603752
0.982824 -0.979438 41.326305
1.606210 1.768638 41.751694
1.582511 1.073265 41.778538
0.208386 0.138975 38.486809
2.190117 1.942159 39.721230
0.922725 -2.024977 40.635784
1.216112 -2.226473 40.030800
2.016098 0.201502 39.916470
2.627444 2.026094 39.153008
1.203919 1.882026 39.720249
1.439054 2.217823 38.970005
0.461252 -0.467812 41.347340
-0.179740 0.935257 39.868034
1.624143 -1.672231 40.605202
1.890544 0.316109 39.256630
1.360909 0.960073 39.193409
-0.086453 1.604880 40.917252
1.105113 0.981811 41.843716
2.238924 -0.333363 40.803551
2.714045 2.379503 39.238827
2.425851 0.004005 38.949139
1.351315 -0.450245 41.550472
0.304613 -0.370960 40.678555
0.210751 0.797578 39.852421
2.443183 0.550291 41.047020
1.861407 2.052101 38.711182
1.654363 1.167289 39.266930
0.649177 -1.672950 40.326286
-0.263499 2.068539 40.054707
2.303059 0.398235 39.533585
0.923319 -2.483380 40.380810
1.009690 1.895635 40.219986
2.593634 2.173079 40.548206
1.442260 -1.203082 41.100651
1.400075 0.355782 39.193233
2.315378 0.434917 38.998417
1.273378 -0.503695 39.931576
-0.027567 2.178478 39.788872
0.770106 2.127089 39.115303
0.224605 0.381266 40.235001
2.568344 2.167953 40.289299
1.116765 -0.346519 40.075336
0.415938 1.052796 39.264267
2.336832 1.412450 41.078197
1.635914 -0.250129 41.284134
1.628503 -0.253749 38.909519
0.243423 1.848898 40.544106
0.692539 0.232580 38.975719
2.690567 1.222913 39.999763
0.481481 0.287253 38.845253
2.615320 0.775499 40.159763
0.380537 0.031689 39.655319
-0.125477 0.686046 41.631535
0.700998 1.333294 39.159729
1.807615 -0.450432 40.961475
1.934946 -0.369405 40.451630
1.935892 -0.587635 39.825306
1.953775 0.620308 41.689800
0.492158 -0.318967 39.836861
2.403414 1.226237 40.879887
2.231047 2.326197 39.358730
0.584616 -1.659184 39.835503
0.726279 0.769444 41.739807
2.406140 0.833954 41.933578
2.034436 0.483523 40.968098
0.024110 0.829469 39.374310
2.549173 1.578428 41.017048
0.277565 0.312159 41.310249
2.692810 1.904758 41.465332
1.130289 0.735644 41.819717
1.544633 1.602889 41.439499
-0.251939 1.207164 39.117336
1.610262 -0.481066 40.209042
2.753032 1.863353 39.354832
0.511239 0.867775 39.086720
0.669284 -0.016990 39.579777
1.721009 -0.558353 41.251873
-0.170907 0.371919 40.412781
0.084179 -0.280741 38.660995
1.125359 1.544851 41.885517
1.212289 -0.081516 41.647411
2.280575 0.820697 39.126930
0.832317 -1.146304 40.194176
2.306438 1.767568 39.385777
0.670411 0.584799 39.179386
1.881482 1.895957 40.053772
0.060814 2.197093 39.345047
2.156572 -0.750322 40.823360
0.834873 -2.440046 40.089642
0.095713 -0.678599 40.324089
-0.340799 1.335430 40.687775
0.772916 -0.372988 39.017994
0.095903 0.092438 40.611084
2.215844 2.001836 40.453892
0.757244 1.732432 39.437340
2.244917 0.155593 41.104588
2.273003 0.166711 39.345665
0.198457 -0.255583 39.318764
1.233029 -2.425681 40.664692
1.953649 1.592809 39.032860
0.725944 -2.105853 39.897411
1.970314 -0.167379 40.618000
1.925092 0.354959 41.554195
2.021136 1.635238 41.750237
2.281333 2.169690 39.834190
-0.151616 1.331996 41.660336
0.399265 -1.310958 40.275845
2.533401 0.947219 41.584229
1.943604 -0.489642 39.402992
2.268347 1.612606 41.622131
2.117938 1.371541 39.168922
0.887548 -2.200634 40.262264
1.349714 0.034637 38.623531
-0.376960 1.346740 40.279530
2.281028 1.639618 40.649509
2.455542 0.566559 38.810753
1.575610 1.972381 41.274372
1.582590 1.863647 41.029312
-0.106982 1.666183 40.432114
1.328260 2.153441 39.503922
0.147461 -0.186290 40.249905
0.997853 -0.012846 38.914639
2.298964 0.187868 38.859966
1.738117 -0.214159 41.063793
-0.477964 1.145262 41.167793
1.512686 -0.005557 38.935627
-0.394446 0.595244 41.258636
2.625787 1.295377 41.836811
0.902648 0.200636 41.555058
0.296895 -0.617799 40.758537
2.228294 1.920970 38.778709
2.468920 0.603241 40.695454
1.963048 -0.306394 40.007629
-0.171356 0.951838 41.569664
2.622968 0.062457 40.804131
2.045146 1.127982 39.136372
1.767647 -0.144749 41.481655
2.037713 0.569771 39.922455
0.930840 0.992722 39.054974
2.277643 1.994042 41.540764
1.488022 2.447914 38.865025
0.283808 0.877353 41.678040
1.253344 -0.729438 41.341171
0.535585 -0.291953 40.399216
2.476286 1.653899 40.511154
1.715037 1.747311 39.175293
1.492319 2.046664 40.326656
-0.274615 0.949860 40.860706
1.904201 1.932485 39.415249
1.833196 -0.392866 38.747955
1.370822 1.829947 41.445957
2.432748 2.021054 40.015347
0.373302 0.215908 39.256641
0.290131 1.709992 41.440353
2.290464 0.394912 40.238705
-0.013135 0.505276 40.228828
-0.020096 1.830314 41.624664
2.152073 -0.314697 38.717293
0.495391 0.454217 41.684013
1.240436 2.106905 39.181133
2.720786 0.802852 39.847431
1.180522 2.315243 39.283344
2.099287 -0.596098 40.589596
-0.148849 0.185195 40.682152
1.782238 0.191838 39.879021
1.068996 2.043727 40.044991
0.588175 -0.978392 40.177528
1.093280 -1.518329 39.765507
0.106172 1.918221 41.300285
1.828836 -0.350353 40.234871
1.575103 -0.321283 39.873074
1.292975 -0.045077 39.097782
1.725418 0.886855 39.148895
0.778685 -1.910622 39.676365
0.181022 0.058508 39.495464
2.345889 0.350030 40.970234
2.511881 2.038657 41.384518
2.091577 -0.043509 38.755962
1.477821 1.699333 39.046368
0.327964 1.274093 41.762939
0.537742 0.390690 39.320766
0.395212 -1.258130 40.976963
0.719509 -1.723209 40.790909
0.435545 -0.281336 39.281990
2.697164 1.567757 39.269669
1.583937 -1.565914 41.091808
-0.303131 1.817173 41.329735
0.595465 -0.737733 39.974579
1.270481 -1.796923 39.562450
1.020772 1.693572 41.225548
2.329603 2.140327 40.697639
1.269309 1.170706 41.675316
0.201103 -0.288334 38.866093
-0.157599 0.821874 40.703976
-0.089172 0.920167 39.557304
1.159254 0.568538 41.648693
1.990554 0.779531 38.778015
0.367676 -1.603819 40.703793
2.678449 1.414570 40.363342
1.571885 1.304338 39.037231
-0.196110 0.646828 40.138222
0.261964 1.407198 38.832558
1.104609 -0.091388 39.614174
2.422078 1.028856 39.369141
0.854118 0.033311 39.116669
1.485040 -0.442714 41.354042
0.481158 -0.340278 40.977161
1.702430 -0.128840 39.251282
1.720411 0.160162 39.280315
1.791795 0.019377 39.503635
1.171612 -0.340623 38.716393
0.441270 0.210247 41.440685
-0.141029 0.491066 40.872959
2.337837 0.387294 41.394772
2.514597 0.612063 39.315746
0.910908 -0.402418 39.978062
-0.373166 1.082225 41.813370
1.665771 1.708171 41.272579
0.086216 0.441761 39.281059
0.829933 -1.501567 40.836334
0.462495 -0.526647 41.112690
0.696384 -2.210288 40.704498
0.307003 -0.052239 40.672142
2.555970 0.413815 39.969814
1.706057 0.406399 38.931576
0.601485 0.698085 41.550232
1.031316 -1.832317 41.007294
-0.398147 0.740341 40.493595
2.212609 -0.243724 41.155193
2.311359 2.180394 38.882111
1.450935 -0.787780 41.231586
0.556283 0.044607 38.812630
0.899545 1.850261 41.464336
0.373282 -1.172006 40.725014
1.131568 2.103153 39.611221
0.869617 1.886184 39.013210
0.632697 2.178161 39.659000
2.109499 0.366595 39.698250
1.909430 0.590163 39.669006
1.764688 0.520833 41.172462
0.690653 -2.308249 39.750130
1.154014 -2.205482 40.274460
-0.199247 1.808378 40.970631
2.789479 1.665773 40.717056
0.425617 1.664282 41.864586
-0.026094 -0.289595 40.732777
1.146741 -0.227977 38.961185
1.934602 0.292866 38.509731
1.299609 -2.392787 39.732929
1.656299 2.366823 38.995941
0.950473 -1.143405 41.115528
1.640702 1.428275 41.555504
0.368476 0.288572 39.639015
2.464280 0.252523 40.703598
0.101052 1.957005 39.617233
0.826614 -1.657510 39.552864
1.834004 -0.169570 38.629379
1.026756 2.112632 40.330296
1.527887 -1.896722 40.015137
-0.282981 2.031720 39.687809
0.394962 1.263654 39.182083
-0.366938 1.556733 40.438065
0.614065 1.928007 40.045811
1.524296 0.151476 39.126141
2.357211 0.827548 38.843102
2.350788 1.835406 40.859402
0.411773 -0.088933 41.226925
1.034884 -2.103324 40.445999
1.934160 0.748049 41.987194
2.605007 2.188231 39.563736
1.434506 2.050695 40.025227
-0.107173 1.978038 39.374413
2.669224 1.941604 40.753601
2.500081 2.008218 41.136417
0.507279 -0.347795 40.069302
-0.019249 0.651992 41.152687
0.759483 1.838766 40.307869
0.456938 0.503396 41.197266
0.242890 -0.394769 40.208019
1.363589 -1.538016 39.991230
1.990380 1.849305 41.655334
1.594676 0.597590 41.681206
2.112644 1.787094 41.910191
2.899516 2.115695 39.653320
2.500579 0.950766 40.390690
0.077700 0.604471 41.359081
2.084473 -1.070575 40.783318
0.198453 -0.387805 39.572830
2.514438 1.138388 39.095955
1.534017 0.584501 39.212959
0.891087 2.186834 39.301449
1.144224 -0.132361 40.012352
2.561758 0.328879 40.359226
-0.044822 1.285084 41.090328
0.228659 0.202534 38.710293
1.697637 1.956673 40.469238
0.134771 1.958308 39.880871
0.315957 -0.277510 40.442535
-0.230049 1.790579 39.368061
0.508544 1.609012 39.028694
0.998802 -0.162262 41.468716
1.550902 -1.816060 40.802757
1.961819 0.189817 39.497757
0.174231 0.383144 39.579697
1.039250 -2.023272 39.698734
0.228308 -0.907126 40.287300
0.644149 -0.812382 41.084190
-0.015682 1.272120 41.936054
0.553242 1.978004 39.139027
1.534388 -0.300636 39.595989
2.056718 0.243726 38.761501
0.714259 -0.270537 39.961002
-0.258675 1.345911 39.745102
2.393279 0.098842 40.379002
2.011263 1.854496 40.271873
2.512567 0.177880 39.108013
-0.350837 0.524189 40.516033
2.706601 0.774013 40.495144
1.099978 -0.016023 39.334148
1.428257 2.164863 38.749416
-0.193977 0.689756 38.888271
0.549131 1.264124 41.805882
0.712674 1.963349 39.835369
1.320680 0.379117 41.671047
0.028177 1.616119 39.151791
-0.108952 1.297534 38.957497
-0.222949 1.947700 40.337429
1.032805 0.731635 39.114983
0.576017 -1.451750 39.914356
2.487862 2.255830 39.008495
1.798270 2.240878 39.195068
0.880556 0.413988 39.314571
0.757972 -0.593917 40.122253
2.547522 0.851576 41.112110
-0.111808 0.080711 41.105579
0.939195 0.619793 41.778744
2.100078 -0.506196 41.033478
1.602127 1.919759 38.977509
1.393654 -0.399250 39.773922
0.726169 2.049176 38.840836
2.251976 1.892145 41.321487
0.768549 -1.205483 39.893005
2.399450 1.365952 41.437263
0.530011 -1.452320 40.383442
-0.147044 1.152849 39.400059
1.479924 1.901536 40.630543
0.179492 1.111881 41.751064
0.944911 1.903792 41.255814
-0.171232 -0.003724 38.912479
1.693923 -0.037595 38.799782
2.081889 -0.529128 40.380890
2.456948 1.760535 41.670944
0.027790 2.024414 39.186234
2.463065 1.115376 41.767796
-0.304186 0.526135 40.287643
0.202103 1.503874 41.866936
1.212150 -1.447079 41.226444
1.138829 -2.030867 40.756161
1.574062 2.155159 39.130314
0.334203 0.910071 41.932175
0.207664 -0.682846 40.569942
2.609794 1.097153 39.840378
1.363652 -0.217474 38.767414
0.419623 0.610903 39.462379
0.545372 -1.873762 40.228188
0.630380 2.042481 40.542694
2.004655 -0.971488 40.403320
2.413334 0.974464 40.803410
2.070920 0.287793 41.115128
0.997405 -1.346468 41.270737
0.137075 -0.023974 39.253761
0.540084 -0.403713 40.750641
0.903984 0.405300 41.638309
0.527307 1.875251 41.153511
0.604363 1.713966 39.250347
0.481950 -2.207180 40.165585
2.004181 -0.393834 40.703239
0.833580 0.024516 38.727097
0.702683 0.078750 39.387291
1.212519 -1.626390 40.946674
0.993168 1.906068 39.850296
1.307666 1.933529 38.917515
0.836112 0.779038 39.338058
1.201689 -1.945031 40.047798
2.080725 -0.052183 41.261276
2.461213 1.268071 41.182423
-0.306752 1.201997 40.860344
-0.282514 0.855416 41.217224
-0.162847 2.224183 40.167786
2.525156 -0.012013 41.031094
-0.406598 1.613540 41.302925
-0.463064 1.749081 40.928970
1.343703 1.539921 41.922478
2.598826 1.002792 40.915508
2.416205 1.879901 39.236591
-0.025318 1.518807 41.777798
1.840010 -1.124094 40.919460
0.485568 1.815829 41.495754
-0.338567 1.333025 41.538464
2.127373 0.451185 38.800247
1.686825 -1.442664 40.816002
0.608162 -1.222916 40.991047
0.343600 1.936424 39.811855
0.186494 -0.087032 39.811836
2.132210 0.924914 38.871292
-0.051109 -0.025985 40.858826
-0.123157 1.887728 40.560757
0.514468 -1.815333 39.977585
-0.384185 1.488925 39.377468
1.519002 2.066700 39.414223
1.121615 -2.428264 40.453339
2.598431 1.851519 38.854637
1.985391 2.211458 39.010399
1.350457 -1.900498 40.824596
0.650546 1.495943 41.611687
-0.392006 1.890944 40.184910
1.307396 1.801097 40.918270
1.498112 0.797358 39.162357
-0.034218 0.603879 39.361450
2.060677 0.016643 40.170944
-0.069880 1.772847 41.299747
1.947801 0.551462 39.009968
2.463202 1.587937 41.468925
0.387672 -0.405428 38.872978
2.742122 2.024776 39.495857
2.805039 1.684900 39.758347
1.826325 0.669340 39.344086
0.172388 0.426996 38.531284
1.337274 1.871097 40.317574
2.004962 -0.152236 39.205734
2.103787 1.987134 39.498657
0.726765 1.673367 41.858288
1.030418 2.396516 38.933994
2.664096 1.208559 39.256733
2.036843 -0.289301 39.490288
1.468908 -2.337355 40.062180
0.401389 2.245930 39.128166
1.512235 -1.096724 40.353180
-0.302663 1.528493 40.957024
-0.367443 2.007843 40.482384
2.657146 0.635505 40.336010
0.896204 -0.187474 38.982510
2.019673 -0.130197 39.638653
1.959730 -0.751616 40.696003
0.007647 -0.195527 39.055222
0.717190 0.955635 39.329884
1.207937 -1.558134 39.590508
1.555303 0.292222 39.372463
1.552793 -1.489084 40.504692
0.902937 -1.444478 39.854362
1.909118 -0.023471 39.908493
0.411787 1.827526 40.742699
1.460866 0.187515 41.717026
-0.206718 1.389924 39.288441
1.829440 0.170324 41.151375
-0.118817 1.508278 40.716381
1.258144 0.765879 39.328537
0.320195 1.181044 41.964951
0.062746 0.586051 39.826599
2.387663 0.649058 41.830795
2.076433 1.605785 39.214668
1.047103 -0.866222 40.162823
0.913481 -0.338639 41.282894
1.477709 0.069717 39.600571
1.705366 0.307104 41.550549
0.431533 0.511722 40.910263
2.681988 2.150142 39.315475
1.215017 1.711627 39.127563
0.160933 1.649688 41.632275
0.964399 1.839260 40.943630
1.300618 0.145445 41.540714
0.599417 -1.619818 40.930672
2.225460 1.037217 41.773647
0.848800 1.000086 41.629841
1.895059 -1.300915 40.567562
0.197549 -0.100912 38.662174
0.393979 0.686495 38.648155
2.796687 1.887316 41.043350
1.368891 -0.347316 38.570721
0.439828 2.112223 39.722687
1.475077 -1.605719 40.853020
-0.353164 0.945497 40.069820
1.107003 1.873915 40.405060
1.336882 0.780667 41.835243
0.728625 2.301663 38.955181
1.781559 0.943069 41.744335
0.592860 -1.448063 40.161961
2.065370 1.602403 42.008533
1.396933 -1.504398 40.225056
2.773939 1.043375 39.610161
0.015861 0.372554 40.945827
1.760978 1.078858 39.072697
0.273671 -0.987674 40.539230
0.319578 1.989634 40.976742
0.487139 -0.402067 39.462395
2.355948 0.537347 38.556210
0.870569 -0.663094 41.208694
0.380559 2.013005 39.408157
0.122924 0.901142 41.893845
1.776630 0.311737 38.759178
0.337460 -1.057589 41.089073
-0.491528 1.158292 41.393841
0.912845 2.047920 39.479038
-0.346967 0.536497 40.838863
0.783499 -0.175701 38.762932
2.656697 1.864707 40.214451
0.557387 0.520834 39.000603
0.351800 0.508934 38.958782
2.446497 0.778168 39.598747
1.769284 -0.547226 40.326077
1.218852 1.550964 39.259953
0.334983 -0.242601 39.949928
1.142425 -1.057747 40.187084
2.416769 1.289908 41.975239
1.049529 -2.343661 39.968330
1.483695 -0.476986 40.024651
0.765915 1.921088 40.645844
0.396118 0.429825 40.120281
1.106029 1.396800 41.714291
1.544451 1.328592 41.829395
1.323447 -1.341218 39.850273
1.323163 -1.450207 41.021294
1.137066 0.191103 38.870483
1.049113 2.148501 38.749161
2.571974 2.326468 39.409801
1.313754 -0.465770 40.148766
2.242641 0.264498 40.406700
1.678194 -2.132020 40.244198
0.645972 0.479762 41.543449
1.844598 -0.640527 41.033649
1.261431 -0.718947 40.055073
1.645139 -0.125564 39.513981
0.128549 0.010777 40.314945
0.707176 -1.492340 41.079121
0.881941 1.502890 41.780910
-0.071629 0.456011 39.081486
-0.231551 1.479881 39.571159
-0.379768 1.031265 41.026806
-0.054006 1.993221 40.187187
1.208904 1.754873 41.647606
0.126270 -0.296516 40.594437
2.078001 0.586057 41.890533
0.551243 0.125281 39.183594
0.053558 1.508084 38.901470
1.272229 1.898689 41.278618
1.648995 -0.807662 41.281921
0.265834 -0.240710 40.970524
1.216526 2.001731 40.781872
1.661298 1.674615 41.965366
2.263768 -0.204597 39.230747
0.193806 0.450728 41.435848
1.895918 0.347931 40.004513
2.199035 1.864851 40.190601
-0.048588 1.675825 40.231190
0.813635 -1.027262 40.025036
2.152255 1.801275 39.255814
2.124638 -0.109811 40.479404
0.629322 -2.047609 40.500954
1.955676 1.921829 40.997143
-0.147050 1.456544 41.133682
0.543991 -0.287140 41.300434
2.564341 1.708890 39.543076
0.271595 -0.085667 40.122952
0.321859 0.151712 40.037861
1.866384 -0.284765 39.027424
0.389801 1.484614 39.138233
0.182361 1.844107 39.202450
0.422632 1.856201 40.375866
0.994200 1.855203 40.688210
1.464766 2.346268 39.129547
2.202736 -0.119852 40.222557
0.079605 0.676930 41.682964
1.774243 -0.414128 39.495766
-0.016337 0.259807 40.209839
-0.189784 0.810590 40.273991
2.479884 -0.009099 40.654980
2.447718 0.241365 39.526867
0.727494 -1.840748 39.890968
2.210820 0.036935 39.201889
1.022566 -1.750141 39.671928
2.684529 0.638423 40.026592
2.307829 0.302894 39.992188
2.347624 1.346254 40.669647
1.802283 0.525798 39.202423
2.264905 2.161046 40.073380
2.622245 0.575008 39.766335
2.536757 1.104773 39.533535
1.334267 -1.258112 40.224728
0.931731 -1.525786 41.080685
0.938794 1.150887 41.792538
1.628044 -0.901638 40.350113
0.124010 2.166242 39.558514
0.296264 -1.465536 40.574291
-0.254878 2.090648 40.831051
2.203827 1.222613 41.875023
1.446842 -1.204505 40.044418
0.095416 -0.703350 40.756607
2.272574 -0.110969 38.538986
1.480739 -0.191767 41.462311
2.586267 0.348533 40.558666
-0.202517 0.805715 39.702625
-0.179490 1.581787 41.309311
1.763056 -0.595520 40.126003
1.575601 0.139810 41.557617
1.182753 1.220586 41.865772
1.153730 -0.029579 38.638653
1.696075 -0.880447 40.942322
0.103267 1.841726 40.901951
0.881968 -0.168087 39.864792
0.443938 -0.415691 40.253155
2.578023 1.425863 39.355022
2.622874 1.023927 41.409889
2.339796 0.610365 39.827930
0.440002 -0.136459 41.032417
1.948146 -0.528583 38.869785
2.577966 1.514163 40.829407
1.281454 1.972541 39.431454
0.517505 -0.579668 40.069878
0.674063 1.106384 41.618057
1.244003 0.040699 39.515274
1.894254 0.146416 40.310417
2.361503 0.539286 41.266693
1.661972 -1.728240 40.226959
1.383220 -0.076163 39.273651
2.655302 0.949856 40.616192
1.857856 0.246395 39.681610
2.469224 0.651901 40.102058
2.151025 1.471075 41.122490
1.384979 0.210141 38.961880
0.618042 -1.256236 40.328899
1.371374 -2.086551 39.987278
1.811190 2.485687 39.090946
2.198085 1.385478 40.937702
1.932900 -0.937531 40.766659
2.162102 2.309275 38.910137
2.247833 -0.532326 40.804470
1.562811 -0.015742 41.407654
-0.249112 0.574155 41.522930
0.004889 1.108154 39.266026
1.746407 1.943318 40.895012
0.815276 -2.340934 39.909035
0.743827 -0.183260 39.111214
2.678619 1.580191 41.723518
1.765851 1.404767 39.309231
2.675017 0.929674 41.722160
2.226054 0.068606 40.920013
1.646796 -0.337430 39.164566
0.551461 -1.634085 40.615517
-0.319333 1.152450 39.667576
0.632830 1.821180 40.783749
0.896360 1.712345 41.678562
1.710567 -1.792363 40.473755
0.266203 -0.374512 39.033169
2.024858 0.809655 39.076252
1.393282 1.851281 41.690292
2.842651 2.231614 39.212700
0.218015 0.010777 39.072956
2.546347 0.255001 40.977051
0.847378 0.383358 38.809261
1.989810 1.404334 38.986149
0.605542 -0.213778 41.582802
-0.362799 0.980587 40.678997
1.843844 -0.021233 41.069340
1.504562 -1.960883 40.300674
2.662869 1.474293 41.204975
1.785680 1.842635 41.658604
0.443730 -0.952959 40.326252
1.266837 0.818012 39.054226
1.173534 0.399630 39.281319
-0.086321 0.903176 41.806187
1.588448 -0.672657 40.049103
0.875158 -2.124706 40.799103
1.384421 1.181880 41.881889
2.276545 0.577819 40.924431
1.047289 0.140413 41.674213
-0.249117 1.231323 40.518768
0.887964 0.009152 41.512554
1.781087 2.223289 38.900318
-0.171793 1.573880 40.073154
2.631850 2.137509 38.902466
-0.353983 1.624818 39.777946
1.290654 -0.994744 41.340946
0.413213 0.753780 41.552502
0.946846 -0.647427 40.123806
1.046701 -2.193317 40.620049
2.833771 1.848639 40.077446
2.300102 1.948770 41.128399
1.576043 -1.512007 40.134365
0.465705 1.922690 38.972698
2.328069 0.403830 40.779743
2.312950 2.416035 39.205528
1.512449 0.992389 41.602177
2.722262 0.984296 40.143669
1.797549 -0.414289 40.769611
0.853748 0.602525 39.244869
-0.341805 1.555588 41.679523
2.189874 2.017752 38.944065
1.103481 0.076848 39.086758
0.695591 1.733151 41.158993
2.629120 2.225171 40.022263
2.409570 0.495688 39.158272
-0.108718 0.131487 38.680592
-0.198444 0.672066 40.827709
2.572503 0.748151 41.475506
-0.248920 0.817317 39.177307
1.108429 -1.290560 39.813122
-0.239278 -0.129386 40.843208
1.447655 0.731488 41.657619
2.125876 2.168296 39.402061
1.782318 1.655871 41.770664
0.644050 -2.349494 40.504749
2.652990 1.707417 41.443378
1.578138 0.263475 38.963589
-0.253258 1.704212 40.304161
1.925525 1.314675 41.966587
-0.444792 1.566785 41.118225
0.297351 0.156265 41.195965
1.891886 -1.167414 41.101421
1.442525 1.937254 39.808662
0.253491 0.760254 38.768948
0.608583 -0.746396 40.221931
1.251874 -1.269088 41.137928
1.383841 -1.693964 39.877838
-0.243784 1.196431 41.202045
0.397973 -0.166032 39.450462
2.191198 1.410853 41.711308
0.313293 0.155064 40.925713
2.286107 0.202312 38.652687
1.785898 -0.750486 40.362343
-0.063380 0.468394 41.110168
1.866903 -1.526010 40.496124
-0.009583 0.278675 39.329189
2.350305 0.562960 39.404991
-0.054435 0.842179 38.756115
1.927112 1.891159 39.014923
1.772159 1.928055 39.137905
0.506567 -1.844730 40.655056
1.382636 -0.147545 38.950848
1.477405 1.466246 39.229156
-0.199489 1.720053 40.778557
-0.074628 0.184021 40.502003
0.284018 -0.717112 40.289707
1.945534 0.022612 38.542351
2.265881 -0.216897 40.652134
0.479434 -1.622750 40.249882
2.619661 1.527530 39.711285
2.759322 2.278375 39.635994
2.167536 0.489624 41.365398
-0.269385 0.068560 40.777035
2.130192 0.779410 42.064602
2.364142 1.928117 39.515213
0.622902 1.208754 39.305050
1.518110 -0.148463 39.936028
1.382582 -1.982541 40.548901
0.438751 1.719653 41.082867
1.231943 -1.136209 40.013287
1.547325 -0.441594 38.890709
0.097114 -0.387542 40.855583
1.937652 0.275736 40.869740
0.101920 0.300453 40.019547
1.024547 -1.617153 40.907444
0.215384 0.612538 40.983822
0.997593 1.259212 39.053860
1.704759 -1.440815 41.007641
0.343501 -0.293464 39.659466
0.645077 -1.069429 41.100212
1.393090 -2.327181 40.426250
1.373800 0.084330 38.810898
1.861111 -0.538965 39.625748
-0.042336 0.588476 39.585503
1.190619 -2.285504 39.850460
2.648476 1.810639 39.200428
-0.351208 1.461238 39.974174
1.127157 1.158389 39.231731
1.794979 -0.109307 39.658165
1.537429 -1.608520 39.954659
2.259103 -0.057697 41.108601
0.532541 1.187682 39.058720
2.775012 1.643108 39.949318
0.131286 0.103563 39.933098
-0.321147 1.044041 39.386707
1.093460 -2.096531 40.129841
0.060931 0.417697 38.765015
1.267315 1.573006 41.734634
-0.113740 1.674445 41.567207
2.284513 1.884939 40.021362
0.372796 0.194815 39.838970
1.952161 -0.487212 39.178989
2.032200 1.965268 39.825172
1.930832 0.067903 38.810715
1.536450 0.866509 41.851284
0.458214 -0.889311 41.059128
2.635374 1.119887 40.284058
0.023390 0.945120 38.895947
-0.200056 1.312294 40.210888
0.029912 -0.106014 40.689075
1.226557 -2.214447 40.677902
2.653354 0.751101 39.647865
0.930133 2.002133 39.279964
2.017635 1.785111 39.454102
-0.345393 0.843556 41.416798
1.314829 -2.304663 40.204983
0.680546 1.924498 40.935673
0.683677 -1.052117 41.286076
1.637341 1.635405 39.314835
2.607062 1.647683 39.112385
0.090986 -0.117694 38.903584
0.179502 0.624706 38.538799
2.282405 1.229748 41.376156
1.959379 -0.143233 40.835938
2.411329 1.989678 40.426701
2.341187 -0.129750 39.064774
0.941304 -0.523030 41.317047
2.666586 1.785651 40.591721
1.655931 2.086884 38.848747
1.222802 1.795850 40.557152
2.739632 1.863055 39.767185
1.847954 0.670665 38.842113
1.122941 -0.858883 41.386074
2.313303 1.722730 39.195404
1.158859 1.543716 39.439774
0.717634 -1.893100 40.959888
0.965883 0.376429 39.079926
0.475582 -1.138922 40.260105
-0.291794 1.075217 40.305683
2.455722 -0.309791 40.928131
-0.199114 1.627171 40.593647
0.334141 1.287326 38.974350
0.373102 -0.879651 40.837772
1.410472 -1.693015 39.652115
1.829247 1.842999 40.319649
0.282451 1.753535 41.254436
-0.177579 0.516960 38.725166
0.522120 2.023992 40.335930
0.494714 2.132132 39.505466
0.314077 -0.069547 38.479279
-0.348150 0.858429 39.834160
0.164078 0.273555 39.401451
1.876731 -1.101812 40.517704
0.891708 -0.028235 39.551037
1.605062 -1.100021 41.164658
0.070160 0.091992 38.626171
0.843691 1.382128 39.271816
0.471947 1.742310 41.692593
2.000400 1.817601 41.467869
0.276511 -0.155018 41.339317
1.859323 2.123427 39.481464
2.038287 0.019531 40.584648
0.176762 0.259784 41.006424
0.471557 0.579447 39.278034
0.469125 0.715970 38.946896
2.482928 0.467499 41.518814
0.264338 0.593417 41.176537
2.382460 0.082069 41.251263
0.508354 0.494575 39.797115
-0.381035 0.997881 41.536980
1.809918 0.500337 41.683048
2.462260 -0.063525 40.842983
2.080381 0.078547 39.394341
1.965708 -0.168326 41.169624
-0.284982 1.240780 41.907967
1.982650 -0.227409 38.727695
0.474492 -0.139592 38.727276
0.929494 -1.566407 39.679878
2.683212 1.668525 40.211643
2.607881 0.727896 40.655979
1.826490 -0.644220 40.847149
2.265168 1.775188 41.514114
2.161996 1.769277 41.014313
2.069168 -0.374206 40.217472
0.312748 0.404397 38.792671
2.786759 1.679947 39.389061
0.366881 1.509716 38.948093
0.274549 1.963950 40.338013
1.889224 0.110269 41.414875
2.104467 1.697323 38.999138
2.337871 1.527681 40.417339
0.932413 0.905728 39.236183
2.431793 -0.212675 41.131386
2.361501 2.179608 39.380424
2.635760 2.056799 41.010715
-0.116289 0.469640 39.261421
2.357769 1.837545 38.906841
0.684630 -0.045519 39.223900
-0.316121 1.865164 39.596138
-0.496737 1.891718 40.416679
2.780793 0.939727 39.957809
2.107565 0.230550 40.236244
0.154413 1.858218 41.690392
0.400450 2.014682 40.651150
0.036293 0.382334 41.349449
0.753072 0.396419 39.167797
0.784876 1.106474 39.041592
-0.177199 2.073456 39.877846
2.106675 0.298712 39.443352
0.724951 -1.603293 39.943058
0.688643 1.956796 39.488075
2.252543 0.458421 41.824715
1.816237 -1.289629 40.759808
0.880957 1.978461 40.324509
2.349952 1.327946 39.310673
1.836105 0.394727 39.075954
1.275073 2.118746 38.923172
0.991524 -2.289681 40.386932
1.786381 -0.371170 39.829842
2.438269 1.490428 41.649521
1.527548 -1.253890 40.449638
1.460697 0.706935 39.331093
2.106620 0.957369 39.172626
0.461340 -0.535569 39.853039
2.299340 -0.163440 38.737801
0.296482 1.932503 39.080578
0.444250 0.168641 38.707638
0.951166 -2.283227 39.781864
1.220926 -1.807711 40.978943
2.514463 2.044032 40.782207
0.427000 -1.461582 40.847980
1.374560 -0.569211 41.244099
2.505003 0.524180 40.396221
-0.232380 0.859029 39.446243
0.258673 0.733535 40.018021
0.724141 2.082369 40.009563
1.365349 -1.196749 41.267517
-0.128963 0.686206 39.876129
2.047690 1.726292 41.232670
2.721069 2.067009 40.629692
0.628280 1.899282 40.421249
-0.300714 1.237182 41.710388
1.764310 0.665232 41.749790
2.351873 0.663759 39.204597
2.403662 1.159417 38.951019
2.008032 1.437286 39.300453
2.429907 2.188634 39.646290
1.254460 2.287891 39.065201
1.832152 -0.321600 39.659294
2.636306 1.508725 41.383144
1.759126 1.451339 41.761612
0.735155 -1.581915 39.704124
2.077784 -0.402959 40.870899
-0.187826 0.712826 41.114067
2.611799 1.171839 41.247116
0.288417 2.036157 39.577648
0.302550 -0.052096 38.815662
0.353933 0.579525 39.630512
2.457352 0.389054 38.857693
-0.000940 1.435410 39.079533
1.497522 2.107463 39.607418
0.833549 -0.463641 38.785725
0.102421 -0.560324 40.463562
-0.452595 1.503766 41.490742
2.724567 1.988239 39.900108
2.516720 0.410075 39.511795
0.180122 1.641970 38.905174
1.448192 1.391149 41.637135
0.661102 -2.458231 40.230080
2.575808 1.225782 41.493317
0.264141 -1.287899 40.602779
2.196901 -0.511880 38.742290
1.572606 0.983734 39.214008
-0.287944 1.170611 41.471893
2.477882 2.123425 39.871098
1.965785 0.819955 39.279999
0.569138 -2.137514 40.342178
1.732351 0.134570 38.846294
2.793179 1.798014 40.842651
1.220814 -2.044213 40.327328
2.422095 0.902835 41.765533
-0.202777 1.405946 39.092918
1.808332 1.251130 39.036865
2.079181 0.372405 39.916557
-0.325702 1.123904 40.045708
1.347542 -2.531208 40.504879
1.526375 -1.580302 40.328857
2.054215 0.617052 38.723606
1.858122 0.391742 41.364491
1.456430 1.672969 39.232895
-0.212755 1.773472 39.758316
0.719293 1.510693 39.124825
2.665496 1.409860 39.567410
0.312927 1.910632 41.467602
0.208124 0.661370 39.707668
1.643008 -2.032918 40.454479
0.140082 -1.271974 40.756134
1.067899 -1.012063 40.021839
0.427020 1.010547 38.963978
2.475379 1.402597 40.327690
1.793098 0.426304 39.515270
1.772151 1.119413 41.702927
1.204318 -1.910213 39.756123
2.294975 1.711830 41.314541
-0.292495 1.426339 41.382339
0.462610 1.385061 41.688835
0.922434 2.038973 40.151630
1.296731 -0.891289 39.950253
1.496072 -2.129070 40.211201
2.595785 1.848226 41.174847
-0.032509 -0.146289 38.722698
2.926956 1.903755 39.325489
1.334951 -0.007214 39.680820
1.634619 1.807601 40.647694
1.093957 -0.671052 39.990540
2.031288 0.135787 41.207973
1.113869 -0.541449 41.460720
1.594823 -0.564282 40.370365
0.292541 1.717452 41.738777
2.472441 1.509848 40.682701
1.202629 1.890371 39.095783
1.553951 -0.205289 41.626877
0.819063 -0.098859 41.375103
0.903039 2.058755 38.972221
2.609689 0.845841 39.993652
1.484713 2.037997 38.908291
2.526738 1.335952 40.807125
1.838588 1.453434 39.095371
1.003569 1.687318 39.131783
1.438355 0.341757 38.767529
2.359722 0.512658 39.668011
0.899773 -2.052444 40.137363
1.189413 -0.118081 39.828533
0.621869 0.337453 39.470737
1.907891 0.133925 39.115356
0.450355 1.623217 39.271397
0.911161 -2.293320 40.683395
0.189139 1.325019 41.881584
2.457190 1.027240 41.218048
1.341826 -0.204536 41.627823
-0.229372 1.891201 41.170399
2.511486 1.831323 39.856533
1.678517 -0.339212 40.904778
0.010693 0.229595 39.105492
0.239470 2.062114 40.563751
0.061821 -0.232359 40.938309
-0.262261 0.665594 40.591526
1.199087 0.509317 39.141815
0.946745 -0.819671 41.253395
1.700877 1.685370 41.469891
0.092586 2.024857 40.427837
1.629337 -0.571282 40.991898
0.223020 0.165999 40.270916
-0.141159 2.001146 41.000618
2.708874 1.224247 39.476776
1.724972 2.107024 39.997078
1.142306 -0.305582 41.550598
-0.262110 0.234506 40.264534
0.140809 1.072793 38.939651
2.217786 0.304170 41.265087
0.920946 1.776584 40.353020
2.213829 1.440506 38.937664
1.012711 2.128140 39.742970
1.604704 2.256472 39.303703
-0.167973 0.697826 39.282612
2.485510 1.175588 41.030666
1.246578 1.385542 39.198605
0.680784 -0.650947 41.280689
1.199626 1.694631 41.163509
-0.004754 2.004848 39.752792
0.734165 1.822130 39.110123
-0.128961 -0.037514 39.139496
-0.297036 0.337013 40.587395
-0.271508 0.766006 41.559193
-0.034825 -0.015762 40.533024
1.570296 -0.652887 41.204018
-0.041592 0.604774 40.060131
1.974743 -0.801302 40.497982
0.636636 0.800781 39.194511
1.317485 -0.045630 41.489479
2.090780 2.277289 39.242702
2.379626 1.753927 41.831127
-0.017801 0.690496 41.482151
2.149733 -0.272341 40.397076
2.366918 2.164946 40.301186
0.425874 -0.491585 40.854843
-0.168119 1.089008 40.890247
2.154108 2.194948 39.690639
2.324176 1.440448 41.957008
-0.437246 0.940692 40.349449
0.704144 2.084793 39.290051
2.107058 -0.247433 40.093243
0.699772 0.903631 41.625225
-0.033888 1.043557 41.907665
1.384493 1.912357 40.779854
0.415543 -0.015400 41.416977
2.453514 0.469915 40.219353
-0.216963 0.834599 40.044342
0.947502 -0.881997 39.958691
2.388405 0.934786 38.980869
2.875066 1.882630 39.101948
0.618052 -2.093598 40.166203
0.668133 -1.313969 40.488838
-0.149593 1.346820 41.847118
1.673077 -1.396896 40.383404
2.811961 2.218635 40.199841
2.017031 -0.040012 40.349834
2.599414 1.604786 39.883244
2.506724 2.399978 39.109123
1.776044 0.876886 39.371990
0.978455 0.092137 39.247154
0.659472 2.008959 38.999794
1.781647 1.979205 39.825081
1.472437 -0.114966 39.548645
0.648221 1.702418 41.509766
-0.410168 1.438571 39.602798
0.847199 0.194974 38.801556
2.194888 0.984116 41.985619
1.436413 1.760617 41.032616
2.032110 1.979040 40.126720
1.981427 1.842255 40.641975
0.400036 2.078221 39.058228
0.636447 -1.522526 40.508732
1.951181 -0.106777 41.367615
1.547394 -1.257318 41.231319
0.626867 -0.194403 38.651115
2.150207 2.398091 39.061852
2.764641 1.871369 40.413700
2.758673 2.158925 39.075974
1.415774 -0.640613 40.087410
-0.252099 2.171038 39.522114
1.320670 -1.593652 41.153202
1.711590 1.428571 41.938107
1.931268 0.855173 41.831982
1.634868 -1.930242 39.879578
2.639566 1.725846 41.048923
-0.085073 0.282017 38.769978
-0.366635 1.711689 40.624142
2.511195 0.831018 39.337452
1.036339 -1.403208 39.645657
0.626896 -0.251642 40.811676
0.140381 1.086699 38.680889
1.799590 0.721339 39.154213
0.710312 -0.292282 39.786903
2.485919 1.189091 40.344578
1.410269 -1.369388 40.112419
0.241249 -0.015763 40.876057
-0.023144 0.665212 38.792667
-0.220165 0.611635 41.268806
1.727971 -1.258454 40.931061
2.581359 0.740769 41.249931
1.003502 0.601720 41.575455
2.383496 1.937283 41.691345
0.258696 2.022355 40.153786
0.453389 0.318228 41.581741
1.848908 1.731848 39.055450
1.001372 2.322079 39.286076
1.092840 -1.268997 41.053757
2.776063 1.404950 39.724361
2.595099 1.910834 39.019283
1.071665 1.741455 41.786213
1.878756 1.119534 41.955116
1.687381 -0.390448 41.374832
0.362896 0.060235 39.157330
2.310614 0.649565 38.935047
1.960991 0.178588 41.034325
2.128369 -0.212607 38.872383
0.597901 2.164473 39.143215
0.132730 1.785499 40.736713
2.234360 0.817437 41.775406
2.342101 0.721404 41.024284
1.901405 -0.987652 41.020443
2.079162 0.417506 40.813061
-0.000120 0.082383 39.235786
2.244492 1.088426 38.914585
-0.353314 1.510474 40.159409
0.879451 0.898483 41.797268
1.432381 -0.324004 39.136898
0.343308 -1.147263 40.537060
1.281786 1.976261 41.123032
2.618092 1.403466 40.030594
2.330711 1.872741 40.527241
0.804654 1.959577 40.818871
1.857699 2.112098 39.726902
1.451575 1.544618 41.760818
1.409794 -2.483676 40.135246
-0.084121 0.339286 40.010994
1.420297 2.025338 40.484367
0.996844 0.357294 39.430553
2.726679 0.972910 39.796204
0.222648 -0.276482 40.077888
0.357511 -0.156015 39.783817
1.496491 0.421488 41.667927
0.722925 -1.357682 40.232788
1.956383 2.011806 38.850643
1.761154 -0.417044 41.147011
1.491017 1.700075 41.861710
-0.197323 1.023520 39.719803
2.194954 0.028892 38.631317
0.473984 -0.655463 40.814774
0.528922 -0.031477 39.479023
1.351543 1.018092 41.676094
0.212386 0.709775 41.548779
1.537767 -0.534183 41.510338
2.542692 0.905181 39.843441
2.250659 1.987460 40.677040
-0.305893 1.930066 40.624420
1.707979 1.278430 41.678593
1.031126 0.710078 39.286789
1.298693 -2.132784 40.872887
0.799660 -2.210294 40.113575
1.944787 -0.077123 39.441578
0.829431 1.866041 41.625061
1.642814 2.117073 39.833679
-0.144520 0.097556 40.936962
0.703914 -2.113614 40.847260
2.546555 2.106626 40.127983
2.243349 1.595562 39.314171
0.810784 1.020904 39.195019
2.550402 0.678647 41.088886
1.072259 -1.043947 41.186214
0.217016 -0.726440 40.902946
0.717953 2.025943 39.643192
1.228494 -2.094703 39.722687
-0.058043 0.635981 40.982140
1.623579 2.076893 40.133106
1.806020 -0.818509 41.089138
0.894694 -0.309371 38.719097
0.683782 -0.397055 41.339474
0.037252 1.738836 40.504955
1.310585 0.271643 39.313892
2.219384 0.540051 38.680420
2.559278 1.772564 40.352715
0.656427 -0.363794 38.658569
0.895766 1.503961 39.098255
0.291736 0.189950 39.503792
0.960065 -0.160187 39.711727
0.784780 1.608858 39.281979
-0.242629 1.749250 39.972691
2.474235 1.592968 39.441963
2.057346 -0.328999 41.155205
0.860181 -2.428729 40.537090
0.868774 0.108941 39.419975
0.766376 -1.902780 40.749626
-0.327486 1.380176 40.448811
0.630527 2.274447 39.298244
1.365543 1.976104 40.163597
1.627485 1.944447 39.691532
2.260264 0.018305 39.033436
1.709599 0.718198 41.549335
2.039052 -0.040141 39.797741
2.417327 1.260414 39.167309
2.642212 1.031756 40.466110
0.265224 1.715927 39.112373
1.618504 -0.521444 39.825794
1.422242 -2.031624 39.739521
2.469789 1.434755 41.866753
0.847009 2.355002 39.067074
1.975777 -0.081853 40.056683
1.183846 1.008074 39.129204
2.178467 -0.320368 40.990250
-0.059591 0.136773 38.946419
2.181810 0.358637 38.608250
2.551811 1.237741 40.625542
0.012117 1.188292 41.788864
-0.037832 0.739227 41.796337
0.816059 -1.340512 41.217876
1.390745 1.664773 41.397110
2.564149 0.875289 40.740398
2.405846 0.463315 39.904221
0.526913 -0.679292 41.070110
1.148540 1.888225 41.538990
1.613740 0.411181 41.450378
0.802855 -2.367088 40.338528
1.961736 0.461172 41.121250
2.526557 1.333969 41.697384
1.222829 -0.297376 39.950542
-0.026892 0.922681 39.224976
0.767482 -0.692182 39.969456
1.776959 0.597840 39.780033
0.379476 -0.217364 40.675697
0.514253 2.068805 40.137913
0.671330 1.320964 41.691265
2.604324 1.488339 40.498714
0.309549 1.825659 40.881302
0.047179 -0.034808 40.171940
0.370439 1.899800 39.276810
0.452982 -0.737705 40.302780
2.094608 -0.949475 40.903198
1.429203 1.843687 38.838207
0.142688 1.901106 41.474941
1.018205 -0.487220 40.089378
2.414024 0.154119 39.250507
2.574012 1.189745 40.881046
1.179717 1.779166 39.407997
0.161578 -0.896129 40.653042
1.379020 0.545885 39.272503
2.235409 1.730441 40.790699
0.518008 0.185896 38.993935
0.501303 -0.458538 40.407921
1.056318 -1.928040 40.864948
-0.119275 1.812595 40.312031
-0.318123 1.379971 40.875294
1.207964 -0.892260 40.113636
0.263810 -0.967481 40.960480
1.173773 1.966405 40.966095
0.600328 -0.087958 41.463779
0.478720 -1.484242 40.581043
0.563872 -2.121427 39.848213
-0.255368 0.293208 40.768982
0.482692 0.437081 38.728622
0.013512 -0.210329 40.379177
1.076404 -0.308035 41.319942
2.783580 1.365470 40.027447
2.451010 0.587574 40.863575
0.576989 -0.144528 38.867615
1.792440 1.915168 40.603764
2.582497 1.061717 39.280926
0.897195 0.196163 39.136974
-0.092788 0.833893 40.547642
0.929571 -1.764834 40.804150
1.756625 0.225065 39.127804
-0.011059 1.456883 41.234886
2.118984 -0.062058 40.933968
0.596143 1.596344 41.736919
0.818958 -0.355387 41.501755
1.688794 -0.562057 39.509926
-0.250428 0.906275 41.875599
1.826143 0.434405 38.653412
2.514749 1.175384 40.047626
-0.122892 -0.062302 41.015320
0.356956 0.927695 39.122265
2.456007 1.023499 40.626530
2.218326 -0.034425 40.598339
0.337749 -0.011675 39.497543
2.565342 0.936431 40.210854
1.256423 2.081535 39.968689
-0.164709 1.785800 41.439110
-0.226677 0.471319 40.028397
-0.303852 1.494217 41.198963
-0.387201 1.296086 39.842876
1.780795 1.935653 38.813118
0.578018 0.098748 41.498699
2.189999 1.692306 41.789394
0.448165 0.354188 39.500160
1.970016 -0.273307 39.336060
0.816224 -0.169569 41.531708
0.227467 -0.447358 40.473782
1.733853 1.082381 41.875443
2.294532 0.233504 40.844902
-0.217278 0.513353 38.949932
1.099999 2.193671 38.956303
-0.345921 0.671016 41.424362
1.507461 -1.181902 40.200245
-0.391435 1.935929 40.022305
2.687887 2.069535 40.450275
1.925600 0.520968 41.449120
2.476302 1.012339 42.028027
0.490239 -1.135561 41.105694
-0.192200 1.485096 41.717373
0.661101 0.133242 41.658543
2.040576 2.133737 39.798714
2.353806 2.004046 40.812237
1.664274 -0.333562 38.765808
1.593727 2.025724 39.269196
-0.084847 0.313880 38.973370
0.359540 0.327679 40.878155
-0.110450 0.871969 39.047375
-0.227383 1.593828 39.439594
0.602625 -0.240582 39.006050
2.584520 1.336807 41.367485
0.634620 -0.460080 40.084133
2.576395 1.617858 41.595661
2.059011 -0.269028 39.080219
1.592057 -1.547909 40.713493
0.074202 0.045791 41.016903
2.742964 1.250962 39.782692
0.148106 0.547537 40.249310
1.927597 -0.325933 40.836266
0.251232 -1.007117 40.744942
1.902521 -0.453416 39.920284
1.341663 2.361502 39.278374
-0.185305 2.013863 39.552647
2.571103 1.365798 39.766830
2.527395 0.743316 40.437004
0.261906 0.617100 39.897457
2.215238 0.465929 39.840466
2.194862 0.692928 39.844162
0.114264 0.532788 39.625320
0.347856 -0.417005 39.804604
1.173024 0.961807 41.660053
2.598844 2.234960 39.153885
1.190259 0.108283 38.733231
0.614329 0.741592 39.026291
1.003309 1.737361 41.531513
2.094257 1.886800 40.456474
2.163294 0.290818 40.075733
1.045231 -0.001750 41.585999
2.108814 1.736639 41.566250
2.159248 0.378345 41.005821
1.258485 -1.091776 41.193600
0.271607 0.423065 41.129311
1.321299 0.629870 41.617634
-0.167008 1.154513 39.957905
1.375282 1.144004 39.072922
2.052494 1.941005 39.113304
1.534232 1.778626 41.347519
2.385517 0.269725 38.976929
0.319678 0.519579 41.329205
1.249724 2.025106 39.793034
-0.193205 1.716089 39.556259
0.318982 0.697357 41.731140
1.550032 0.504670 41.812180
1.287882 2.038095 39.617146
1.125056 0.731468 41.651081
1.293781 2.128856 39.337318
2.370856 0.236156 40.286846
2.649137 1.846902 39.581272
0.749485 0.343990 41.645954
1.967194 1.736722 42.006580
1.828723 1.145254 39.213379
-0.175713 1.336013 40.708305
-0.289275 1.696570 41.602917
0.098009 0.749794 38.680763
0.568718 1.754769 39.080784
0.957855 1.814413 41.107689
1.198037 -2.404228 40.102894
0.321712 -1.268480 40.425732
0.621977 1.914957 40.254650
0.978508 -0.267927 38.560204
0.361398 1.487983 41.810963
1.861819 0.465844 39.358967
0.568446 1.025282 41.736889
0.486795 0.578355 41.545498
0.820926 1.701165 41.531288
1.537092 0.073681 38.652534
0.405305 -1.793914 40.534031
1.643992 -0.056791 41.548386
1.893483 2.083715 40.313602
1.802362 1.704144 39.457375
0.988952 -1.141549 41.292458
-0.037401 0.239254 41.028633
0.623404 -1.429974 40.950485
0.064510 0.094971 40.448414
-0.138236 1.628072 39.127571
2.395040 1.939400 40.980461
2.183233 1.248390 39.062721
1.727200 0.143084 41.405285
1.088124 -1.119029 39.865910
-0.030525 1.948036 41.508743
1.964514 1.738282 41.090061
0.444614 1.961539 40.839699
1.186867 2.430353 38.975803
1.991151 0.447000 41.682053
2.291150 1.341373 41.245892
1.451322 1.916972 41.135284
2.000312 0.899225 41.998680
-0.147883 0.124000 39.110172
1.008865 2.120005 39.151100
2.313142 -0.127678 40.782841
1.548126 -1.409010 41.128876
2.497933 1.641471 41.203659
1.350160 -0.549511 41.406204
1.519343 -1.806834 40.595482
1.982452 0.371039 38.687210
2.426737 0.021770 39.123882
-0.137400 1.085939 39.171085
1.719430 -1.502228 40.565990
2.525031 0.388928 41.070774
2.199885 0.781929 38.789558
2.024070 0.092590 38.677071
1.745579 1.216918 41.989143
2.452463 0.655479 41.350391
0.434138 -1.989645 40.448677
2.631883 2.176214 39.814270
1.053186 -0.247476 38.827106
-0.170720 -0.342145 40.806240
1.850405 0.750095 39.000290
-0.219983 0.886358 41.032261
0.626189 0.386290 38.935394
-0.050687 0.660703 40.745041
1.430464 1.170977 41.708652
0.571206 1.435388 39.136833
-0.352080 0.473676 40.679310
2.067596 -0.478111 39.062229
1.704162 -0.275195 39.548935
2.395941 1.939879 39.062428
0.516168 1.938859 39.869576
2.334198 1.575002 41.791035
0.048733 1.716765 40.993759
1.864210 -0.471315 40.559425
0.712949 -1.212884 41.170479
1.469185 -0.889069 41.370617
1.644717 1.643061 39.067509
2.253720 2.162159 39.243099
0.784045 1.588915 41.680958
1.969276 1.657985 41.445145
2.095112 1.024256 38.996635
0.303130 -0.333118 39.199894
-0.381187 1.135689 40.729916
-0.356405 1.787467 41.165028
0.918467 -1.318107 39.962685
1.720222 1.897508 41.255539
1.370929 -0.444741 38.732082
0.472285 -1.185481 40.417831
2.727070 1.834163 41.299618
2.078652 1.897282 40.775879
2.224443 2.032843 40.276051
-0.191165 1.079089 40.454727
0.367521 -1.369600 40.699734
1.419425 1.349388 41.932777
0.811952 -1.228913 40.048992
2.339111 1.253878 41.038212
1.861382 2.073860 40.114605
0.990576 0.013497 38.622074
0.207859 2.098019 39.410877
1.382885 -0.747363 39.905258
2.444528 1.444715 40.952404
-0.258329 1.008175 41.723808
1.455094 -0.010775 39.102062
1.622970 0.364747 39.631798
0.821263 1.341483 41.824097
2.030672 0.491519 39.779324
0.422358 1.080174 41.652840
0.752016 -0.933550 40.210613
1.700085 -0.028786 38.636871
2.379770 1.457065 39.096256
2.618093 0.938930 39.408451
1.614078 1.373037 39.229336
0.173180 -0.551912 40.842007
1.755811 0.317624 39.348537
1.722327 0.477689 41.336678
0.877737 -2.084758 40.376511
1.615918 -0.938583 41.184380
1.380370 -1.828260 40.004158
1.708136 1.984431 39.463436
1.111509 0.514527 39.378727
0.237158 0.007764 41.225113
1.872809 -0.122632 39.296146
1.932458 -0.293366 38.587536
1.851590 2.397951 39.221985
1.453370 -1.874159 40.172771
1.664081 -0.884284 40.101597
2.848591 2.102066 39.388340
2.295200 1.981292 39.890705
1.346105 -1.803502 39.752693
1.804020 0.015812 38.931263
1.989223 1.308310 41.802387
1.320456 -0.135867 39.923157
1.991796 0.230715 40.115990
1.198284 1.479446 39.011185
