x y z
0.260921 0.031904 0.434587
0.496385 0.100996 0.035109
0.199518 0.032032 0.589699
-0.256715 0.304665 0.204630
-0.452102 -0.028536 0.111907
-0.310394 -0.030581 0.401845
0.177180 -0.043383 0.662314
-0.367888 0.283168 0.100223
0.470892 0.124873 0.073391
-0.000513 -0.010710 0.984950
-0.000121 -0.037885 0.954341
0.342833 -0.286381 0.084093
-0.221721 0.247507 0.371964
0.081131 0.121518 0.720655
0.051583 0.060973 0.846410
0.300227 -0.075395 0.379596
0.149613 0.175590 0.541206
0.341756 -0.200371 0.227268
-0.369844 -0.004050 0.250240
-0.049100 0.029964 0.909486
0.087962 0.165095 0.626039
0.142731 -0.103780 0.677783
-0.211009 0.262562 0.336929
0.067054 -0.055768 0.887608
0.068808 0.205421 0.593214
0.103311 0.192399 0.575285
-0.015995 0.247306 0.508757
0.109164 0.383432 0.209620
-0.214323 -0.450910 0.003806
0.192537 -0.109693 0.541751
0.012153 0.017362 0.986764
0.010720 0.010103 0.990089
-0.018722 0.011787 0.964796
-0.285853 -0.106957 0.359243
-0.110537 0.070375 0.740480
-0.063329 -0.466487 0.077303
-0.178891 0.363530 0.196181
0.059685 -0.300644 0.387021
0.346853 0.050580 0.252237
-0.042104 -0.021032 0.906027
-0.062725 0.203733 0.561971
0.132695 0.102201 0.649457
0.003265 -0.007839 0.967530
-0.108063 -0.053149 0.728497
0.316365 -0.044764 0.342036
-0.240702 -0.357932 0.136183
0.288444 0.299052 0.154314
0.433858 -0.187620 0.061378
0.024563 0.066011 0.867178
0.000855 -0.002503 0.979748
-0.128201 -0.055721 0.709684
0.003314 -0.477538 0.072551
0.226813 0.208569 0.359461
0.040473 -0.075950 0.844541
0.314484 -0.298267 0.132202
0.066767 -0.049282 0.824094
-0.177454 -0.168080 0.521554
-0.338525 -0.069209 0.312493
-0.320372 0.368085 0.008700
0.272839 0.314248 0.183687
0.151104 -0.098396 0.686677
-0.290502 0.093970 0.378829
0.273261 0.177264 0.346558
-0.001780 0.095542 0.830925
0.056029 0.054164 0.856585
0.099032 -0.178066 0.610294
0.038332 0.450739 0.089756
0.162763 0.141775 0.575086
-0.092478 0.234300 0.527252
0.327438 0.361699 0.002390
-0.062504 -0.166830 0.639671
0.007081 -0.009972 0.999515
0.091438 0.004281 0.843154
0.003721 0.002274 1.005404
-0.403128 -0.247173 0.026277
-0.411470 0.238227 0.041936
0.075145 -0.325937 0.295982
0.237320 -0.288002 0.238916
0.279558 0.021059 0.433586
0.129380 -0.057627 0.772163
-0.219705 0.241948 0.336855
0.160166 0.401170 0.138242
-0.015136 -0.029232 0.934285
0.387127 0.165528 0.167042
-0.103055 -0.313662 0.319290
0.051925 -0.027715 0.870783
-0.112468 -0.363026 0.241960
-0.021810 -0.326933 0.301136
0.401108 0.118853 0.146779
-0.238057 0.345972 0.159885
0.025663 0.059057 0.840397
0.006468 -0.464742 0.050439
0.014331 -0.412500 0.175702
0.291211 -0.217758 0.271093
0.233452 0.109166 0.515906
0.040839 -0.031500 0.883225
0.228486 -0.320855 0.212819
0.353298 0.061147 0.293857
-0.152670 0.203718 0.502508
-0.066046 -0.072204 0.797268
-0.025212 -0.046875 0.884794
-0.513834 -0.055002 0.004629
-0.060911 -0.031848 0.864943
-0.017490 -0.055832 0.890121
0.078802 0.014924 0.827484
-0.018100 -0.325939 0.337091
-0.270731 -0.341259 0.162338
0.103055 0.030170 0.823396
0.182129 0.064705 0.678341
-0.060201 -0.422664 0.199607
-0.064644 -0.017574 0.869990
-0.066226 0.337436 0.330908
-0.050999 -0.038063 0.890129
-0.210307 0.045045 0.554537
-0.120723 0.099723 0.655550
-0.018369 -0.035622 0.928312
0.213171 0.298127 0.258424
0.002849 0.338569 0.323814
-0.433861 0.254091 0.013492
0.106058 -0.067069 0.757342
-0.131767 -0.134135 0.624482
0.074246 0.104195 0.794764
-0.144809 -0.300917 0.374416
0.073294 -0.389379 0.175141
-0.301565 0.308664 0.108791
0.039993 -0.424664 0.150609
-0.231001 0.137258 0.464173
-0.078570 0.106546 0.776227
0.021492 -0.204669 0.586128
-0.096396 -0.181192 0.593192
0.232292 -0.286271 0.238094
0.450845 0.053013 0.104612
0.152256 0.057928 0.693697
-0.008358 -0.054690 0.891645
0.219027 -0.167130 0.438201
0.435413 -0.222118 0.015061
-0.085513 -0.172149 0.602151
0.164943 0.028799 0.643637
-0.053815 -0.330918 0.307797
-0.170204 0.459916 0.028243
-0.018371 -0.105099 0.797849
0.000870 0.037341 0.920594
-0.312197 -0.205591 0.256413
0.302598 -0.041752 0.430031
0.121168 -0.108133 0.673741
0.277734 0.176381 0.324811
-0.243648 -0.106605 0.496462
-0.059548 0.018652 0.892124
-0.006557 -0.084423 0.838306
-0.066336 0.299635 0.412480
0.273140 0.056849 0.414815
0.021815 0.298195 0.435645
0.032949 -0.142463 0.695811
0.325146 -0.114231 0.327303
-0.077010 0.156599 0.627579
0.312301 -0.072237 0.331085
-0.083270 -0.427783 0.075138
0.026169 0.484879 0.027797
-0.298750 0.080946 0.381178
-0.153050 0.126173 0.621612
-0.016453 -0.253899 0.514513
-0.277339 -0.117746 0.407512
-0.156051 -0.173296 0.547334
-0.001911 0.002433 0.993505
0.259076 0.151595 0.404699
0.216014 0.054864 0.549326
-0.004551 0.212503 0.573019
-0.334173 -0.058838 0.324678
0.348184 -0.157362 0.223335
0.211901 0.328942 0.192533
0.248062 -0.235837 0.336004
0.385258 -0.023199 0.226204
-0.020137 -0.049169 0.877413
-0.042568 -0.266171 0.460086
0.013693 0.131542 0.746932
0.187648 -0.030288 0.648526
0.107840 0.477323 0.017335
-0.232328 0.301859 0.259486
0.072172 -0.024823 0.850224
0.388761 0.258933 0.107376
0.180259 0.079714 0.626217
0.007725 0.435377 0.104829
-0.056498 0.031740 0.886245
0.035053 0.431985 0.155696
-0.349005 0.230572 0.172502
-0.332207 -0.100811 0.279042
-0.065196 0.218063 0.534787
-0.000285 0.000582 1.008771
0.004221 0.015744 0.968804
0.344934 0.283298 0.113794
-0.002578 -0.365855 0.277992
-0.233770 -0.213258 0.363972
-0.046111 -0.168117 0.670604
0.022075 0.013490 0.973280
0.203229 0.286621 0.308810
-0.148020 0.044577 0.725223
0.042181 -0.415985 0.186146
-0.258526 -0.313356 0.183606
-0.198008 -0.030743 0.596146
0.033804 -0.349496 0.253177
