x y z
-0.107879 -0.128191 0.647243
0.221281 0.234041 0.313244
-0.379517 -0.036729 0.225580
0.225764 0.158521 0.451175
-0.072243 0.253759 0.450263
-0.025333 -0.050894 0.869185
0.335046 -0.267408 0.135380
0.386691 -0.098011 0.193383
-0.376699 0.251027 0.082851
0.389951 0.304387 0.062760
0.021421 -0.322641 0.345533
-0.020735 0.007188 0.990370
-0.238900 0.171745 0.426195
0.015430 0.003679 0.990963
-0.036586 -0.081401 0.813574
-0.043535 -0.475387 0.048468
0.046368 0.193208 0.623657
-0.163843 0.137407 0.576084
-0.293139 0.146220 0.352805
0.026083 0.017362 0.968362
0.420047 0.231160 0.071505
0.379649 0.245978 0.138726
0.040422 0.002396 0.956032
0.029363 0.010351 0.943015
-0.206744 0.001703 0.589950
0.372754 0.131988 0.173961
-0.263801 -0.021484 0.472915
-0.102170 0.074379 0.769021
-0.021457 -0.006667 0.928925
0.167689 -0.436680 0.115660
0.004822 0.100527 0.816965
-0.061984 0.288336 0.409217
-0.455054 0.094254 0.066764
-0.186080 -0.440908 0.043913
0.321411 -0.336687 0.011988
0.006953 -0.367531 0.286532
0.110762 0.025217 0.775084
0.322608 -0.160757 0.262170
0.309786 -0.297050 0.126285
-0.321103 0.151119 0.272802
0.152246 0.168140 0.515632
0.053423 -0.120728 0.774159
0.199205 0.340817 0.220587
-0.120759 -0.085845 0.719415
0.024777 -0.030509 0.884290
-0.105030 0.018975 0.789928
-0.294373 -0.056346 0.396596
0.237771 0.269954 0.317465
-0.330247 0.003605 0.356822
0.086813 -0.037040 0.848464
0.026839 -0.036795 0.893274
-0.075668 -0.008417 0.865053
-0.122295 0.231576 0.435388
-0.285766 -0.077235 0.411400
0.358729 0.277295 0.085030
-0.024244 -0.457893 0.060888
0.040019 0.172965 0.657803
-0.271340 -0.104131 0.386986
0.233804 0.331778 0.161629
0.059798 0.037963 0.873451
0.076119 0.041839 0.826517
-0.007173 0.224497 0.544707
0.254939 -0.358266 0.112338
-0.370228 -0.180706 0.193637
0.029494 0.374411 0.243260
-0.014288 -0.013219 0.973625
0.145470 0.341375 0.288415
0.381854 0.123082 0.218703
-0.166365 0.161437 0.536032
0.114818 -0.241026 0.443764
0.161075 -0.045631 0.672933
-0.027350 0.081282 0.830539
-0.400209 -0.225344 0.089340
0.241577 0.347456 0.145061
0.169515 -0.299646 0.313206
0.084159 -0.142809 0.707471
0.082145 0.210238 0.556260
-0.259171 -0.237436 0.317612
0.347145 0.218614 0.170555
0.277824 0.085437 0.385884
-0.377002 0.009079 0.250753
0.119512 -0.024749 0.777774
0.306493 -0.194284 0.279325
-0.171075 0.069262 0.628988
-0.030158 -0.276202 0.449694
-0.082511 0.063653 0.793076
-0.134897 -0.104796 0.638283
-0.304998 0.293062 0.194776
-0.010575 0.015554 0.952887
-0.312172 0.356292 0.024421
0.285876 -0.008867 0.437247
0.080074 -0.004382 0.887842
0.241916 0.082383 0.505126
0.066911 0.016770 0.852316
-0.269016 0.239480 0.271914
-0.072540 0.032583 0.829282
0.240316 0.139425 0.440598
0.108126 0.081580 0.726597
-0.220732 -0.121023 0.510329
0.013395 -0.043073 0.894765
-0.079849 -0.210167 0.575387
-0.213360 0.353602 0.220267
-0.149106 -0.435137 0.120179
0.043228 -0.020691 0.922828
-0.320730 -0.225065 0.195197
0.100458 -0.368984 0.259552
0.171757 -0.280953 0.338516
0.054585 -0.160924 0.666032
0.150332 0.319634 0.319887
0.425994 0.174140 0.067731
0.047459 -0.193235 0.615173
-0.105438 -0.228175 0.494364
0.247566 0.219067 0.320522
-0.445938 0.014055 0.114760
-0.077110 0.126532 0.712253
0.021143 0.094479 0.808175
0.133161 -0.180196 0.546899
0.208625 0.216531 0.401202
0.223503 -0.383237 0.085564
0.014228 -0.188305 0.619013
-0.023353 -0.031644 0.931493
0.071191 -0.317088 0.364384
0.103105 0.236615 0.484429
0.032931 0.050275 0.825632
-0.121960 -0.132220 0.655827
0.358973 -0.123448 0.229148
-0.002795 0.011758 0.985127
0.122722 0.033021 0.742493
0.424460 0.127228 0.114167
-0.315769 -0.034928 0.369882
0.073252 0.014458 0.880104
0.212423 -0.241210 0.414391
0.197412 -0.273810 0.315317
0.274786 0.132635 0.369890
-0.309586 0.126702 0.334335
0.086478 0.011246 0.839940
0.138303 0.020198 0.678934
0.344715 -0.240029 0.151809
-0.060470 0.259155 0.482212
-0.279236 0.108037 0.341332
-0.119860 0.074390 0.758725
-0.238382 -0.412456 0.056758
-0.225023 0.058368 0.556452
0.041376 0.025717 0.921211
-0.245290 -0.047599 0.493634
0.022843 0.367518 0.280578
-0.325937 0.075255 0.348807
-0.112713 0.347848 0.276231
0.039232 -0.251216 0.487793
0.104463 0.053860 0.766987
-0.463429 0.150543 0.060731
0.119445 0.136215 0.628255
0.194663 0.447338 0.003906
0.308501 -0.004544 0.412335
-0.373459 -0.163014 0.177988
-0.000537 -0.018102 0.984229
-0.241140 0.419685 0.035078
-0.015889 -0.209240 0.567293
0.277028 -0.307066 0.121503
0.257633 0.282696 0.259137
0.217119 -0.005880 0.562218
-0.169786 -0.211348 0.490646
-0.168325 0.301946 0.291791
-0.013420 -0.008987 0.997063
-0.094690 -0.410767 0.183636
0.158519 -0.192176 0.482608
-0.020995 0.004160 0.930005
-0.361441 0.226084 0.143698
-0.095624 -0.057430 0.817556
0.226897 -0.183855 0.421649
-0.248105 0.401393 0.045829
0.059975 -0.003034 0.879442
-0.226493 -0.089906 0.514822
0.059305 -0.194554 0.570424
-0.071228 -0.057336 0.783389
-0.327651 0.155451 0.266749
-0.110292 0.241075 0.441904
-0.059759 0.146377 0.719868
-0.154078 0.141873 0.573971
-0.146843 0.087383 0.685416
-0.050946 0.221611 0.579233
0.053858 -0.027985 0.892253
-0.008637 -0.043573 0.936617
-0.150696 0.183794 0.538448
0.420999 -0.096757 0.149839
0.206724 0.191984 0.515993
-0.418899 -0.049068 0.148678
0.023216 0.024551 0.957058
0.394778 -0.009552 0.198602
0.134999 -0.482764 0.016911
0.031123 -0.095822 0.831211
0.216819 -0.227984 0.401597
-0.132659 -0.148613 0.571028
-0.000949 0.009305 0.991983
0.057919 -0.419329 0.168546
-0.033982 0.020328 0.893159
-0.078947 0.009195 0.839367
-0.247742 0.368083 0.106958
0.178178 -0.348052 0.208511
-0.286466 -0.371037 0.053475
