x y z
-0.018134 -0.003510 0.963059
-0.345752 0.170296 0.229168
0.024032 -0.275521 0.446865
-0.003325 -0.062427 0.874970
-0.013060 0.376182 0.247183
0.384543 -0.182085 0.149051
0.475938 0.105530 0.025005
-0.047101 -0.424822 0.145150
0.011082 -0.004702 0.975923
-0.084305 -0.402892 0.176764
-0.451326 -0.149670 0.049007
-0.048675 0.002151 0.902555
0.298244 0.205068 0.276115
0.152888 0.086011 0.649156
-0.015925 0.010548 0.961797
0.035625 -0.015892 0.921982
0.107792 0.194201 0.555779
0.251334 -0.208062 0.347439
-0.191258 -0.215415 0.423863
-0.144399 -0.045669 0.697103
0.196389 0.362144 0.176065
0.464849 0.178855 0.003860
-0.021272 0.151798 0.693438
0.463224 -0.183492 0.003515
0.233677 0.229909 0.344369
-0.446170 0.063378 0.098703
-0.047474 -0.067660 0.834692
-0.023850 -0.135305 0.725218
0.163051 0.071878 0.643618
0.201222 0.229860 0.389015
0.070389 0.063814 0.809980
-0.222742 0.268234 0.302680
-0.362277 -0.044982 0.269883
-0.141386 0.285904 0.362094
-0.238473 0.129444 0.457320
-0.032633 0.112794 0.765162
-0.283333 0.192687 0.314710
0.025173 -0.395314 0.207771
-0.098476 0.278607 0.409003
0.011812 -0.003872 0.975140
-0.195915 -0.132320 0.527173
0.027033 -0.276426 0.444510
0.017882 -0.267864 0.463080
-0.018126 0.000780 0.963715
0.038924 -0.036138 0.893774
-0.197292 0.043328 0.596013
-0.008857 0.001836 0.981909
-0.290524 0.217724 0.273892
0.098636 0.157491 0.628342
-0.163618 -0.118418 0.596052
-0.009660 -0.030784 0.935472
-0.025461 0.063525 0.863125
-0.075618 -0.090561 0.764040
-0.018987 -0.438186 0.122806
-0.119543 0.305775 0.343375
0.009806 -0.408498 0.182768
-0.018009 0.436450 0.126357
-0.115124 -0.094336 0.702323
0.268383 0.223533 0.301440
0.102577 0.248018 0.463214
0.230829 -0.162897 0.434960
-0.071693 0.261516 0.457670
-0.069191 -0.166900 0.638652
0.001522 -0.111005 0.777969
-0.064365 0.437295 0.115987
0.032657 -0.001261 0.934637
0.036833 0.112298 0.763632
0.193977 0.086727 0.575035
0.478386 -0.075520 0.031379
-0.022597 -0.026904 0.929731
0.067237 -0.024154 0.857112
-0.025343 -0.208169 0.580587
-0.014581 0.018741 0.952510
-0.060150 0.020781 0.872723
0.169814 0.047303 0.647442
0.004346 -0.034061 0.931325
0.119631 0.293235 0.366602
0.187292 -0.124766 0.549911
0.138201 -0.042566 0.710785
0.038870 -0.005913 0.921366
-0.021623 -0.216014 0.565813
-0.319337 -0.365621 0.029114
0.336814 0.229177 0.185223
-0.213020 -0.161383 0.465502
0.160322 0.413332 0.113328
-0.025148 0.061037 0.867971
0.024348 0.001062 0.951257
-0.030190 -0.016659 0.931038
-0.084395 0.040829 0.812495
-0.047739 -0.087230 0.801123
-0.013472 0.007207 0.969443
-0.275248 -0.065110 0.434312
-0.055655 -0.081409 0.802770
-0.083315 0.109980 0.724050
0.190762 0.163322 0.497748
0.084639 -0.371323 0.238306
0.034610 0.032301 0.905317
-0.039348 -0.007851 0.919753
-0.146782 -0.079653 0.665996
0.079203 -0.132792 0.690764
0.120379 -0.249143 0.446599
0.278579 -0.229610 0.277983
-0.108560 -0.138627 0.647849
0.006186 0.046260 0.906657
-0.184660 -0.099621 0.580363
-0.269165 -0.068740 0.444393
-0.006961 -0.163288 0.673127
-0.182077 0.097362 0.587052
0.188283 0.039597 0.615198
0.095517 -0.171184 0.607942
0.265721 -0.296592 0.203571
0.009619 -0.157153 0.685106
0.221297 -0.041065 0.549850
-0.051372 0.092093 0.789095
0.326590 -0.271736 0.150291
-0.174747 -0.061507 0.629490
0.066044 0.135897 0.697810
-0.156810 -0.034477 0.678889
0.346440 0.058787 0.297215
-0.082379 0.267518 0.440171
0.009216 0.028915 0.939303
0.155773 -0.049403 0.673161
-0.214845 0.046786 0.560241
-0.110704 -0.029259 0.770990
-0.001886 0.149133 0.701709
-0.357736 -0.041400 0.279752
0.095192 -0.074115 0.758716
0.202169 -0.025869 0.592366
-0.052635 0.427787 0.137975
0.118091 0.036924 0.752543
0.221272 0.096384 0.517295
-0.007584 0.382399 0.235052
0.099094 0.370187 0.233559
0.166703 -0.160342 0.537400
-0.180050 -0.060839 0.619898
-0.082502 0.017432 0.831353
0.340078 -0.130276 0.271646
-0.140142 0.008858 0.719157
-0.063745 -0.047468 0.841046
-0.017072 0.007653 0.962583
-0.172255 -0.202016 0.469031
-0.213657 -0.110034 0.519347
-0.350304 -0.165277 0.225328
-0.043204 -0.049320 0.868866
0.283420 0.058333 0.421278
-0.228252 -0.057899 0.529038
-0.181911 -0.087732 0.596077
0.043732 -0.387967 0.219153
0.233047 0.068981 0.513917
-0.288920 0.236020 0.253863
0.195611 0.439764 0.037387
0.196825 -0.200458 0.438134
-0.007369 -0.015209 0.966201
0.371078 -0.176405 0.178253
0.249513 0.270792 0.263562
0.145260 -0.297714 0.337477
-0.003386 0.022975 0.953554
0.071574 0.116932 0.725804
-0.394003 -0.121875 0.175157
0.201286 -0.193051 0.442202
-0.192373 0.175073 0.479778
0.335073 -0.108261 0.295744
-0.042913 -0.166534 0.656052
0.006053 -0.004048 0.985437
-0.034519 0.207015 0.580253
-0.278757 0.190086 0.325202
-0.321476 0.248827 0.186953
-0.022224 0.009110 0.951962
-0.270293 -0.242035 0.274358
-0.118910 0.286572 0.379474
0.265186 0.015715 0.468697
0.009708 -0.077634 0.843523
-0.375547 0.282484 0.060142
0.083978 0.235694 0.499585
-0.025111 0.021625 0.933723
-0.142635 0.376044 0.195628
0.056142 -0.096197 0.777238
0.179505 0.271058 0.349787
-0.078198 -0.114527 0.722645
-0.258824 -0.217863 0.323378
0.259049 0.112743 0.434960
0.018676 0.013730 0.953640
-0.291861 0.026218 0.413928
-0.123840 0.008147 0.751785
-0.259231 -0.137899 0.412745
-0.011220 0.009146 0.971050
-0.475306 0.021054 0.048456
-0.153119 0.031189 0.687474
0.138620 -0.129397 0.620744
0.055161 -0.384151 0.223817
-0.019030 -0.023126 0.940102
0.224763 -0.093529 0.513107
0.017617 -0.057132 0.880426
0.056701 -0.427891 0.136737
-0.218720 0.347969 0.178000
0.083646 -0.116282 0.713516
0.096918 0.032911 0.795293
-0.063323 0.006815 0.872623
-0.229130 0.318260 0.215679
0.104582 -0.265760 0.428805
