x y z
0.085123 0.088298 0.754703
0.087697 -0.021995 0.819174
-0.100675 -0.228303 0.500970
-0.438109 -0.041446 0.119870
0.298009 0.144655 0.337475
0.045077 0.021124 0.900438
-0.119760 0.247309 0.450439
0.153061 0.166925 0.547048
-0.074167 -0.082311 0.778408
0.289783 0.191246 0.305596
-0.002852 -0.132039 0.735860
-0.416804 0.113037 0.136280
0.400798 0.201496 0.102804
-0.421963 -0.239246 0.029863
-0.233031 0.407419 0.061291
0.020232 0.051760 0.888853
-0.092901 -0.101274 0.725140
0.004915 0.250091 0.499721
-0.041137 -0.419074 0.157823
0.070921 -0.219645 0.538378
0.450875 -0.034493 0.095614
-0.010508 0.001766 0.978689
-0.012677 -0.062761 0.871944
0.032313 -0.447161 0.103347
-0.008489 -0.292617 0.414520
0.441707 0.166757 0.055727
0.140803 0.435173 0.085230
0.400506 0.044953 0.193957
0.015959 0.131204 0.735659
-0.281142 0.067747 0.421622
0.123354 0.303951 0.343944
-0.182899 -0.132389 0.548430
0.028279 -0.006259 0.942072
0.225932 0.232760 0.351239
0.040741 0.106799 0.771387
-0.202648 0.215747 0.408010
0.125324 -0.177020 0.566215
-0.186701 -0.349026 0.208353
0.186634 -0.254233 0.369233
-0.093417 -0.335218 0.304018
-0.352782 0.321836 0.044943
0.046663 0.039352 0.877918
0.147259 0.038402 0.695632
-0.125283 0.043606 0.734691
-0.303095 0.089042 0.368193
-0.169167 0.084698 0.621628
-0.252301 -0.168285 0.393450
-0.057648 0.009330 0.883204
0.007131 -0.000170 0.985733
-0.019067 -0.055805 0.882055
-0.150889 0.465979 0.020401
-0.047112 0.291858 0.408729
-0.284556 0.207145 0.296065
-0.129143 0.115873 0.652987
-0.003013 -0.311950 0.376071
0.066610 -0.261248 0.460787
0.019757 -0.104434 0.787428
-0.058353 0.320280 0.348896
-0.106368 -0.242957 0.469558
0.256652 0.155724 0.399600
0.036827 -0.006681 0.925144
0.154328 -0.193114 0.505591
-0.341117 0.330131 0.050584
-0.016761 -0.071731 0.852673
0.152165 0.318068 0.294815
0.297380 -0.055096 0.395119
-0.383940 -0.230794 0.104063
0.025875 0.086654 0.819131
-0.285850 -0.187841 0.315911
-0.305627 -0.010245 0.388403
-0.011234 0.421855 0.155991
0.233937 0.113594 0.479884
-0.195599 -0.140292 0.518581
-0.070635 -0.086816 0.776158
-0.044789 0.387584 0.219673
-0.021117 -0.127206 0.742106
-0.300728 -0.053560 0.389079
-0.112699 -0.070313 0.734331
0.055446 0.023176 0.879811
-0.149570 -0.367071 0.207252
0.034412 0.209335 0.575711
0.020043 -0.004606 0.958869
0.283834 0.008298 0.432090
0.400365 0.180373 0.121760
-0.004319 -0.000631 0.991270
-0.158593 0.088490 0.636780
-0.143973 -0.239609 0.440927
0.211748 -0.210523 0.402816
-0.061101 0.093916 0.775915
-0.048082 0.368966 0.255828
0.122556 0.052585 0.733278
-0.201500 -0.067949 0.574702
0.120342 -0.269341 0.409995
0.028517 0.057748 0.871189
0.125157 0.195990 0.534914
-0.097269 0.093621 0.729991
-0.107086 -0.074178 0.739464
-0.168291 0.001384 0.663407
0.119941 0.390797 0.182422
-0.036209 -0.442466 0.112109
0.261842 0.044006 0.468972
-0.221204 0.100547 0.514033
0.049964 0.108444 0.761199
-0.020263 0.004875 0.958317
0.243274 -0.082553 0.486201
-0.364022 0.312063 0.041052
-0.163968 0.332324 0.258852
0.270566 -0.226738 0.293981
0.018075 -0.011390 0.957271
-0.015281 -0.022868 0.944993
-0.056719 -0.012548 0.883819
0.161455 0.086685 0.633491
0.010063 0.040040 0.917429
0.096162 0.013055 0.805912
0.232477 -0.116221 0.480181
-0.109254 0.150191 0.628550
-0.092327 0.272442 0.424678
-0.069577 -0.230292 0.518854
-0.087740 0.032715 0.812719
-0.237464 0.036312 0.519552
-0.052532 -0.214939 0.557468
0.187876 0.068833 0.599824
-0.457664 0.200526 0.000665
0.008069 -0.018447 0.959731
-0.168940 -0.458572 0.022597
-0.117684 -0.113295 0.673287
-0.282001 0.322736 0.142835
-0.023794 -0.118216 0.758826
0.063852 -0.032288 0.856897
-0.162764 0.037445 0.665968
0.151720 0.148417 0.575516
0.189364 -0.123161 0.548216
-0.009589 0.066587 0.865453
-0.239825 0.198863 0.376903
-0.029878 0.142451 0.708899
0.013238 0.062837 0.871567
-0.013784 -0.363000 0.273476
-0.308392 0.299252 0.140564
-0.014748 -0.163441 0.671790
0.243499 -0.105992 0.468866
-0.397721 0.230988 0.080136
-0.216422 -0.021390 0.565047
0.188007 0.364055 0.180530
0.072397 -0.191125 0.591245
0.082098 0.257887 0.458721
-0.292460 -0.184833 0.308059
0.051504 -0.041113 0.868198
0.025702 0.213000 0.570909
0.293956 -0.102263 0.377528
0.072076 -0.029665 0.844116
-0.211522 -0.029465 0.572872
-0.364274 -0.181197 0.186297
-0.418345 -0.249335 0.025977
-0.080548 -0.485277 0.016168
-0.017338 0.013618 0.955906
0.066363 0.119166 0.727202
-0.245055 0.060619 0.495117
0.090109 -0.160084 0.632595
0.091961 0.174165 0.606095
-0.001657 -0.017103 0.965634
0.095686 0.003233 0.808520
0.045729 0.193920 0.601523
0.149878 0.130416 0.602650
-0.238649 -0.091930 0.488514
-0.351522 0.081826 0.278160
0.065787 -0.229957 0.521636
-0.166892 -0.178762 0.510883
-0.203490 0.353235 0.184688
-0.053085 0.066573 0.829707
0.048074 0.327716 0.337552
0.309309 0.026528 0.379110
-0.287146 -0.382663 0.043163
-0.267061 0.060953 0.452143
0.195470 0.306677 0.272651
0.015093 0.006188 0.967375
-0.235549 -0.041519 0.521639
-0.003436 0.003777 0.989788
0.049387 -0.293357 0.405029
-0.044771 0.134768 0.715981
-0.094149 -0.019012 0.807901
0.077991 0.108434 0.732863
0.116013 0.243021 0.461415
0.021207 -0.072872 0.848211
-0.102139 0.171116 0.601436
0.349897 -0.009062 0.299971
-0.168981 -0.336344 0.247187
0.032003 -0.010244 0.932796
0.029565 0.379380 0.238940
0.279291 0.191308 0.322940
-0.306599 -0.394522 0.000699
0.410448 -0.222958 0.065810
-0.085984 -0.043081 0.807655
0.243353 -0.210981 0.355846
-0.265850 0.174900 0.363554
-0.035338 -0.035024 0.900493
0.024294 -0.187314 0.622234
0.337750 0.049642 0.317242
-0.229410 -0.024159 0.538644
-0.006070 -0.019990 0.958217
-0.034292 -0.126457 0.737952
