x y z
0.004061 0.014010 0.970827
0.413560 0.113003 0.142558
-0.348348 -0.223202 0.172557
-0.268854 0.173073 0.360510
0.092096 -0.069447 0.769310
0.035168 0.184261 0.624826
-0.146019 -0.101036 0.644867
-0.467776 -0.117819 0.035230
0.002554 0.295923 0.408132
-0.224201 -0.022434 0.549359
0.100289 0.420627 0.135165
0.070229 0.244758 0.490731
0.256161 -0.012539 0.487066
-0.021746 -0.063562 0.865642
-0.117371 -0.256863 0.435182
0.244206 -0.144959 0.432022
-0.062633 -0.071848 0.809370
-0.380955 0.032064 0.235396
-0.126965 -0.317208 0.316653
-0.002423 0.000831 0.994877
0.295317 -0.177178 0.311221
-0.084461 -0.066877 0.784536
0.061344 -0.162033 0.653487
-0.162725 0.447976 0.046769
0.127281 -0.068761 0.710667
0.198172 0.160711 0.489705
-0.260340 0.042998 0.472266
-0.207706 0.167479 0.466367
-0.152606 0.455614 0.039015
0.293256 -0.019780 0.412156
0.009618 -0.030320 0.936382
0.035697 0.252829 0.489327
-0.234114 0.056677 0.518246
0.132524 -0.381104 0.193023
-0.077917 -0.050591 0.814199
-0.074098 -0.069857 0.796328
-0.216690 0.351731 0.173757
-0.094911 -0.114667 0.702298
-0.021576 -0.008414 0.953683
0.006622 -0.014790 0.967590
0.141847 -0.304175 0.328754
-0.093642 -0.370771 0.235173
0.004685 0.031034 0.937228
-0.278346 0.112817 0.399320
0.328262 0.021440 0.342078
-0.135404 -0.057098 0.706098
-0.027334 0.146021 0.702884
0.248217 0.139738 0.430305
0.392023 0.170071 0.145350
-0.084712 -0.457370 0.069702
0.307557 0.311363 0.124699
0.115724 0.086212 0.711386
-0.218465 -0.017255 0.561710
0.288978 -0.084884 0.397627
0.453128 0.108179 0.068275
0.246114 -0.118184 0.453961
0.103955 0.068667 0.750826
-0.031356 -0.034036 0.907445
-0.101460 -0.187610 0.573425
0.188315 -0.139051 0.531821
-0.057196 -0.203854 0.576548
0.116674 0.292975 0.369296
-0.095482 -0.158979 0.629103
0.076326 0.278420 0.422615
-0.036876 0.138882 0.712611
-0.470492 -0.165439 0.002539
0.195996 -0.143876 0.513730
0.196866 -0.061150 0.587711
-0.000017 -0.110134 0.779733
-0.047217 -0.011129 0.902979
0.046574 0.401965 0.190692
-0.103639 0.106967 0.702121
-0.093628 0.133276 0.674248
-0.011688 -0.009725 0.969590
0.138183 0.456834 0.045450
0.045447 -0.040707 0.877976
0.154501 -0.081565 0.650580
-0.164934 0.441826 0.056785
-0.287624 0.171507 0.330246
0.111482 0.015492 0.774893
0.010839 0.045561 0.906335
0.058744 0.014022 0.879211
0.167939 -0.089719 0.619195
0.107608 -0.311569 0.340743
-0.034893 0.213653 0.567032
0.059484 0.076854 0.805631
0.434871 0.090820 0.111494
-0.410775 0.281117 0.004484
0.220274 -0.199076 0.406191
0.000420 0.009858 0.980267
0.392961 -0.109147 0.184325
0.340597 -0.052560 0.310743
0.443072 0.195288 0.031598
-0.319432 -0.163366 0.282434
0.184814 -0.437586 0.049973
-0.090036 -0.312576 0.349430
0.379725 0.057886 0.231776
0.045097 -0.068527 0.835931
0.174440 -0.131536 0.563051
0.011553 0.004902 0.974901
-0.087031 0.457550 0.068493
0.053038 -0.085222 0.799243
0.095450 0.397659 0.182092
-0.205745 -0.425482 0.054769
0.125525 0.385994 0.188217
-0.135451 -0.132683 0.620782
0.013823 -0.044093 0.907581
0.111006 0.392605 0.184008
-0.150717 -0.345467 0.246175
0.107328 0.144630 0.639793
0.000483 -0.001020 0.997742
0.138889 -0.100629 0.656976
-0.114638 0.163468 0.600682
-0.024846 0.102517 0.789031
0.165513 0.066715 0.643095
-0.370253 0.303994 0.041877
-0.135289 0.136229 0.616014
0.031540 0.100678 0.788994
0.327427 -0.199539 0.233125
-0.143760 0.100450 0.649246
0.389409 -0.111041 0.190138
-0.260938 -0.239045 0.292240
0.030301 -0.183336 0.628355
-0.375738 0.010279 0.248243
-0.372109 -0.162907 0.187587
0.228695 0.098745 0.501795
-0.387230 0.010677 0.225246
0.095798 -0.039794 0.792531
-0.025016 -0.005038 0.948964
0.325577 0.342479 0.054924
0.041016 -0.200418 0.590855
0.456019 0.092094 0.069550
0.241020 0.122792 0.459006
0.220637 -0.199185 0.405507
0.423770 -0.081693 0.136856
-0.363112 0.226070 0.144528
-0.264645 -0.007805 0.470481
-0.138792 -0.152840 0.587091
0.232693 -0.423906 0.032854
-0.013624 0.051103 0.894224
0.292950 0.084757 0.390071
0.081689 0.261499 0.452077
-0.002024 0.283537 0.432913
0.100120 -0.094789 0.724254
-0.045424 -0.151712 0.683268
0.070323 0.025559 0.850353
-0.129168 0.248445 0.439966
0.311190 0.160752 0.299484
-0.088100 -0.056115 0.791093
-0.034795 -0.034346 0.902218
0.088058 -0.019292 0.819706
0.025161 0.044492 0.897772
0.090441 0.223914 0.517021
0.045304 -0.464179 0.067231
0.018091 0.040006 0.912188
0.205916 -0.447001 0.015701
-0.361516 -0.028569 0.274714
0.262938 -0.210565 0.326281
0.008921 -0.073052 0.852811
0.215348 -0.083648 0.537954
-0.100792 -0.448294 0.081030
0.286060 0.190135 0.313032
-0.077659 -0.220826 0.531834
0.221630 -0.183003 0.425162
0.044436 0.058702 0.852752
-0.229674 -0.079525 0.513896
-0.224068 0.229027 0.359188
0.062712 0.003424 0.874390
0.101918 0.068741 0.754134
0.142255 0.007783 0.715065
-0.056796 0.067619 0.823386
-0.138382 0.010797 0.722395
-0.013689 -0.012970 0.962285
0.450985 -0.016122 0.097454
-0.140283 -0.186538 0.533199
-0.251507 -0.006528 0.496817
-0.489733 0.005460 0.020473
0.128068 0.420672 0.120531
-0.358070 0.022216 0.282483
0.213502 -0.097725 0.530390
-0.114297 0.160537 0.605862
-0.189191 -0.067866 0.598010
0.051782 0.152890 0.677159
-0.131863 0.092425 0.677944
-0.276174 0.094066 0.416491
0.283841 -0.155832 0.352390
0.180799 0.184027 0.484038
-0.155104 -0.355911 0.223522
0.362213 -0.270320 0.096072
-0.249328 -0.124840 0.442327
-0.195840 0.429495 0.055925
0.160545 -0.033973 0.671800
0.041017 -0.460473 0.075408
-0.105115 0.043035 0.772833
0.244914 -0.133058 0.442550
0.013873 0.036171 0.922521
0.282768 0.158815 0.351370
0.034288 -0.033397 0.904271
0.103309 0.066679 0.754082
-0.391532 -0.212340 0.109190
