x y z
-0.348794 -0.116476 0.264544
-0.011323 -0.033733 0.928834
-0.047146 0.076010 0.821111
-0.344434 -0.080431 0.292599
0.110429 0.203981 0.536091
0.014616 0.222494 0.554052
-0.016442 0.042087 0.909631
-0.039944 -0.024063 0.906736
0.428996 0.111926 0.113288
0.054060 0.039919 0.865598
0.246395 -0.313369 0.202728
0.297761 -0.031465 0.401162
0.236562 -0.376410 0.110852
0.371740 0.042607 0.251653
-0.093804 0.012639 0.810697
-0.180352 -0.248340 0.386161
-0.171625 0.021853 0.653979
0.033010 -0.088980 0.810188
0.210485 -0.195784 0.425073
-0.100113 0.218208 0.519844
0.026759 0.175267 0.645404
-0.315661 -0.092583 0.342083
-0.280594 -0.088492 0.411566
-0.361595 -0.043034 0.271706
-0.004758 -0.030314 0.938631
0.099570 0.219080 0.518709
-0.025983 0.276227 0.445107
-0.058856 -0.046513 0.849968
-0.000419 -0.226894 0.546211
-0.106522 0.174970 0.590311
0.014821 0.020996 0.948599
-0.107351 -0.350671 0.266530
-0.089579 0.098690 0.733436
-0.094583 0.033576 0.799268
0.209682 0.111880 0.524673
-0.303565 -0.352028 0.070322
0.481853 -0.036805 0.033488
-0.140306 0.223635 0.471990
0.020251 0.232820 0.532601
-0.328804 0.313688 0.091127
-0.305973 -0.230442 0.233912
0.094712 0.108640 0.711743
-0.065856 0.126871 0.714111
0.347157 0.066172 0.293186
0.034321 0.011388 0.927678
0.324641 0.352615 0.041398
0.097327 0.218641 0.521349
-0.262154 0.331961 0.154014
-0.226370 -0.010278 0.546794
0.004358 -0.001364 0.990867
-0.361979 0.129806 0.230901
-0.138812 0.436017 0.084839
0.010109 -0.317083 0.365513
0.436096 -0.172629 0.061959
-0.263209 0.188587 0.352407
0.022053 0.220697 0.556408
0.048478 0.310268 0.371934
-0.031302 -0.027678 0.916432
-0.022603 -0.438378 0.122079
0.088544 0.038962 0.806526
-0.056295 -0.494409 0.004792
-0.088011 -0.026527 0.816157
-0.029317 -0.254629 0.487378
0.313668 0.212014 0.242801
-0.125061 0.158736 0.595835
-0.242671 -0.247436 0.306851
0.125043 -0.116493 0.658203
0.292951 -0.238988 0.243863
0.039215 0.148568 0.692687
-0.246524 0.294073 0.232529
-0.096741 -0.159590 0.626755
-0.310512 0.233614 0.222843
0.005595 0.123533 0.752680
-0.204557 0.081214 0.559821
0.010916 -0.000861 0.978100
-0.195362 0.443134 0.031427
-0.362852 0.019585 0.273240
-0.078849 -0.362428 0.258188
-0.044108 0.031318 0.891809
0.050358 -0.010364 0.897174
-0.211918 0.097227 0.533686
-0.213786 -0.355449 0.170426
0.227434 -0.010965 0.544604
-0.202839 0.282664 0.304176
-0.046697 0.023831 0.895147
-0.294290 -0.121591 0.363161
-0.139643 0.208489 0.498132
0.139622 0.137307 0.608349
-0.208362 0.336198 0.208941
0.124782 0.415097 0.133107
-0.289835 0.083575 0.396711
-0.071126 0.242976 0.493656
-0.255158 0.051987 0.479200
-0.173895 0.082265 0.615256
-0.020659 0.020086 0.942372
0.361268 0.308571 0.049778
0.221823 -0.326935 0.209831
-0.123194 -0.026257 0.748078
0.055730 -0.003807 0.888280
-0.377657 0.016300 0.243983
0.015641 0.008994 0.963915
0.096677 -0.099672 0.722288
0.028737 0.020175 0.929776
0.033496 -0.142121 0.707971
0.148616 0.081776 0.660741
-0.217369 -0.204059 0.403713
-0.225408 0.136358 0.473114
0.002702 0.007776 0.983535
-0.153279 -0.048797 0.678282
-0.011749 0.218961 0.561449
-0.102049 0.274259 0.414740
-0.442081 0.166266 0.055373
-0.198896 -0.074315 0.575348
0.360138 0.147714 0.221491
0.124632 -0.166546 0.583968
0.078825 -0.062814 0.798417
-0.001151 -0.105080 0.789827
-0.032706 -0.106426 0.777324
0.060209 -0.177277 0.625554
0.426029 -0.173409 0.080061
-0.014607 -0.442092 0.115334
-0.138423 -0.408557 0.137262
-0.219805 0.046007 0.550863
0.080307 -0.025136 0.831703
0.334102 -0.217879 0.202264
0.167138 -0.269444 0.365854
0.177165 0.456307 0.021014
0.115597 0.177179 0.576893
-0.366710 -0.191307 0.172777
-0.349843 -0.143559 0.243695
-0.056044 0.123921 0.727990
0.314335 -0.237732 0.211778
0.425213 -0.243348 0.020154
-0.010986 -0.479310 0.041127
0.103996 0.067477 0.752062
-0.098328 0.187992 0.575692
0.067752 -0.131346 0.704419
-0.407240 0.205201 0.087966
0.147910 0.186538 0.523874
-0.074574 0.058940 0.809893
0.063379 -0.473999 0.043565
0.028042 -0.019707 0.931451
0.356644 0.106912 0.255351
0.111686 0.069444 0.736970
-0.276502 0.165816 0.355181
0.010968 0.210330 0.578769
0.212622 0.216978 0.392424
0.301124 0.022362 0.396094
-0.031881 0.012187 0.931737
0.002197 0.001143 0.995047
0.169032 0.323319 0.270324
0.145469 -0.241258 0.436558
-0.419944 0.174242 0.090685
-0.392823 -0.020491 0.213286
-0.204107 0.095760 0.549090
-0.274266 -0.033781 0.447324
0.204264 -0.161976 0.478617
0.077888 -0.007863 0.843432
0.088564 0.165418 0.624731
0.061807 0.372382 0.245046
0.261775 -0.033922 0.472072
-0.220874 -0.226371 0.367452
-0.412514 0.085260 0.157535
-0.098944 -0.262385 0.439159
-0.039774 0.137008 0.714671
-0.079163 0.109909 0.729100
0.005053 0.003047 0.988199
0.335746 -0.004983 0.328434
0.092636 0.009705 0.813715
0.159208 0.428544 0.085676
0.082701 -0.117512 0.712608
0.248116 -0.257787 0.284414
0.223097 0.127394 0.486186
0.016148 -0.050815 0.893361
0.126264 -0.379168 0.200724
0.184816 -0.090642 0.588306
0.121168 0.078668 0.711069
-0.192628 -0.253473 0.363277
-0.039609 -0.149536 0.690614
-0.019416 0.028710 0.930682
-0.023595 0.150583 0.695159
0.292080 -0.398159 0.012395
0.148965 -0.100927 0.640128
-0.075115 -0.166512 0.634660
0.015728 0.179763 0.639100
-0.255319 -0.157796 0.399709
-0.272879 0.043949 0.447209
-0.320366 0.203332 0.241110
0.146940 0.384783 0.176231
-0.041899 -0.028085 0.899117
0.175710 -0.332223 0.248345
-0.381085 0.061658 0.227917
0.096221 -0.190208 0.573677
0.424954 0.029810 0.148003
-0.230892 -0.054254 0.525639
-0.003831 -0.059898 0.879959
0.286244 -0.324621 0.134403
0.075038 -0.201275 0.570385
0.389601 -0.196941 0.126902
-0.408294 -0.103585 0.157541
