x y z
0.113447 0.162250 0.604045
-0.007203 0.001356 0.985341
-0.039064 0.036989 0.892405
-0.001355 -0.000738 0.996915
0.145817 0.055856 0.687703
0.086833 0.053023 0.796516
0.353441 -0.331055 0.031459
0.141704 -0.183815 0.535810
-0.368670 -0.241014 0.119079
0.169675 -0.411242 0.110260
-0.109538 -0.156574 0.617826
-0.009601 -0.149893 0.699600
-0.271235 -0.415742 0.007206
0.043038 0.006285 0.913010
0.153005 0.140696 0.584280
0.027887 -0.071341 0.846803
0.194256 -0.311175 0.266337
0.144110 0.385759 0.176404
-0.375879 0.044074 0.243091
0.061472 -0.071781 0.810988
-0.258465 -0.325376 0.168919
0.059801 0.030696 0.865561
-0.008738 -0.478603 0.042634
-0.388268 -0.070357 0.210818
0.120077 0.073394 0.718538
0.210376 0.076722 0.552141
-0.473390 -0.155941 0.003173
-0.049546 -0.032495 0.881497
-0.006568 -0.275796 0.448251
0.041514 -0.287703 0.418635
-0.116450 -0.051168 0.745609
0.063079 -0.015969 0.869863
0.076415 -0.331496 0.319621
0.254275 -0.115465 0.441474
0.012886 0.111791 0.774938
0.411411 -0.278075 0.006854
-0.212630 0.270557 0.311777
0.368611 0.075938 0.247296
0.385965 -0.264600 0.064091
0.303486 0.230217 0.238151
0.072669 -0.036433 0.837419
-0.135442 -0.079015 0.686389
0.320061 -0.244682 0.194250
-0.262241 0.097733 0.440278
-0.315905 -0.265887 0.174186
0.152482 0.041500 0.683942
0.423826 0.114338 0.122045
0.390529 0.105480 0.190953
0.100958 0.247138 0.466071
0.155585 0.040142 0.678640
-0.481279 -0.120802 0.007584
0.083462 0.114094 0.717276
0.298175 0.157253 0.325799
-0.055642 0.351232 0.288776
0.059648 0.137699 0.699874
0.160385 -0.216198 0.461614
-0.017025 -0.075085 0.846019
0.403451 0.087764 0.174228
-0.050903 0.127855 0.724769
-0.295836 -0.163604 0.323877
-0.067610 0.037190 0.845673
-0.402977 -0.208682 0.092391
0.405711 -0.046642 0.183233
0.357413 0.139176 0.232892
0.173544 -0.052979 0.637099
-0.009642 0.011223 0.970408
0.211156 -0.443402 0.017774
-0.132032 0.002169 0.735900
0.035907 0.009655 0.925636
-0.290947 -0.312103 0.146634
-0.080184 -0.215074 0.540929
-0.051085 0.095215 0.783892
-0.329407 0.062918 0.329276
-0.196697 -0.231631 0.392242
0.182379 0.376535 0.163242
0.159425 0.158812 0.549944
-0.104905 -0.051594 0.766189
-0.012084 -0.023817 0.946586
-0.108185 -0.418066 0.136326
0.348537 0.047670 0.296437
0.159066 -0.334425 0.259346
0.118961 -0.021028 0.758389
0.194168 0.106114 0.557455
-0.041097 -0.027500 0.901101
-0.358089 -0.121966 0.243419
0.175696 -0.467760 0.000663
0.096839 0.059531 0.772651
0.352614 0.034884 0.291330
-0.000964 -0.003457 0.992822
-0.285381 -0.035906 0.424738
-0.136542 0.354510 0.240208
0.329975 -0.352195 0.034755
-0.003003 -0.017163 0.965153
-0.043997 0.022161 0.901474
-0.011683 -0.136684 0.725635
0.183005 -0.369757 0.174867
-0.378883 -0.149913 0.185074
0.460393 -0.022901 0.078075
0.115347 0.232474 0.480966
0.265384 0.171944 0.367566
-0.056756 0.109682 0.753006
-0.086429 -0.136177 0.677422
-0.346673 -0.133705 0.256875
-0.328384 0.181945 0.249160
-0.258093 -0.150834 0.402128
-0.057151 0.068281 0.821916
0.451125 -0.184662 0.025087
-0.082923 0.000848 0.834144
-0.041337 0.347015 0.301063
-0.140033 -0.050130 0.702529
-0.125302 -0.035443 0.739563
-0.040973 0.417048 0.161888
-0.002401 -0.025529 0.948717
-0.037384 0.000506 0.925226
-0.134308 -0.390698 0.173722
0.288351 0.408159 0.000520
-0.027547 0.256957 0.483142
-0.029894 -0.038539 0.902452
0.204304 0.067561 0.569630
0.058882 -0.177575 0.625835
-0.091394 0.424791 0.130977
-0.238819 -0.190360 0.389193
0.262773 0.333828 0.150316
0.135822 -0.297665 0.345625
-0.290438 0.054389 0.409026
0.101751 0.100560 0.713885
-0.102484 -0.038589 0.780984
0.249967 -0.432295 0.001277
-0.021767 -0.026297 0.931727
-0.035084 -0.002513 0.929653
0.108655 -0.039239 0.768954
-0.036765 -0.090736 0.804198
-0.098821 0.288514 0.390064
-0.253920 0.018035 0.490880
-0.000677 0.000323 0.998500
-0.045272 -0.043991 0.873751
-0.008381 -0.048208 0.902138
-0.187203 0.145878 0.525340
0.070687 0.096903 0.760110
0.037785 0.135470 0.718718
-0.003164 0.318883 0.362203
-0.007799 -0.239999 0.519748
0.031972 -0.047350 0.885732
-0.213073 0.216837 0.391992
0.114339 0.207911 0.525446
-0.085467 -0.192696 0.578400
-0.109364 0.203695 0.537606
0.016221 0.376836 0.245630
0.054773 -0.169005 0.644682
-0.247327 0.377828 0.096840
0.209888 -0.210025 0.406154
0.375172 -0.245111 0.103712
0.383264 -0.285835 0.043772
-0.229697 -0.104324 0.495444
-0.036620 -0.321346 0.353148
0.004348 -0.003497 0.988840
0.021426 0.043297 0.903383
-0.073249 -0.088776 0.769812
0.018972 0.000983 0.962006
-0.250852 0.292751 0.228949
-0.150612 -0.173294 0.540806
0.102544 -0.113231 0.694475
-0.006172 0.006044 0.982723
0.027175 -0.024361 0.927008
-0.025747 -0.301673 0.394461
0.052863 -0.048886 0.855995
-0.440257 0.075010 0.106798
0.351841 0.200378 0.190201
0.226682 0.240535 0.338965
0.021635 -0.109260 0.777238
-0.299882 -0.173696 0.306891
-0.073094 0.073702 0.792398
0.087764 0.045723 0.802080
0.410014 -0.250003 0.039556
-0.099265 -0.050558 0.777203
-0.194031 -0.079364 0.580730
-0.025425 -0.003895 0.948556
-0.068574 0.264307 0.453885
0.220846 -0.089353 0.523525
-0.168473 -0.046640 0.650380
-0.006061 0.065447 0.868546
0.174476 -0.046668 0.638781
-0.020019 -0.028977 0.929561
-0.050740 0.101272 0.773456
0.076148 -0.310422 0.360749
0.255959 0.036581 0.482880
-0.158722 -0.026348 0.678211
-0.248577 0.011056 0.502354
-0.061270 0.250215 0.484785
-0.374840 -0.013575 0.249829
0.015043 0.049180 0.897141
0.024409 0.153960 0.688234
0.061017 0.109004 0.750161
-0.320141 0.070942 0.344186
-0.394056 0.176266 0.136635
0.052387 0.143746 0.694011
0.017043 0.000456 0.965901
-0.045802 0.032888 0.887226
-0.448971 -0.002498 0.102044
-0.348925 -0.238860 0.154299
