x y z
0.447723 -0.021146 0.063843
-0.064002 -0.318662 0.363504
0.410909 0.064459 0.158489
0.088378 -0.011128 0.812331
0.029575 -0.002599 0.911283
-0.028528 -0.045245 0.865811
-0.215805 0.037367 0.585241
-0.385001 0.115875 0.186767
0.002837 0.020290 0.955425
-0.107638 0.001360 0.821352
0.156979 0.431982 0.100196
0.053036 -0.490241 0.008831
-0.342543 0.039152 0.302772
0.271703 -0.080981 0.455319
-0.342683 -0.322013 0.043103
-0.363746 0.015324 0.287760
-0.041451 0.288431 0.424350
0.087444 0.213508 0.558408
0.146646 0.482243 -0.012639
0.439540 0.007045 0.092517
-0.026276 -0.073907 0.829948
-0.219366 -0.317219 0.220494
0.140022 0.094245 0.668140
-0.115416 -0.304897 0.361557
0.014724 0.355934 0.298808
0.098620 0.269917 0.454510
-0.131614 -0.140647 0.598058
0.253683 -0.105664 0.457750
0.005978 0.091478 0.785595
0.027456 0.118753 0.764026
0.046797 0.337386 0.293721
-0.060075 0.017006 0.891689
-0.169011 0.465185 0.018333
-0.014081 -0.036048 0.947779
-0.023627 -0.440224 0.120609
0.195077 0.223731 0.430749
0.274049 -0.013399 0.472639
-0.188288 -0.440470 0.070574
-0.144267 0.007062 0.690134
0.253029 -0.413005 0.071846
0.010233 0.032888 0.969751
0.103342 0.154796 0.616644
0.063856 0.154986 0.639127
-0.098678 0.138817 0.675909
-0.084300 0.049521 0.803087
-0.093447 0.098855 0.750820
-0.385129 -0.010838 0.189523
0.013463 0.000586 0.986941
0.209645 0.240231 0.366595
0.115963 -0.210081 0.489485
0.154800 0.001114 0.700905
-0.098828 -0.141311 0.643042
0.006977 0.037674 0.910860
0.073527 -0.164528 0.660295
0.031614 0.009726 0.924315
-0.184050 -0.100061 0.584591
0.039877 0.064721 0.851249
0.334479 -0.252570 0.202840
-0.173611 -0.423638 0.094865
0.242447 0.151676 0.421788
-0.067189 -0.021419 0.860703
-0.040576 0.112803 0.711097
-0.036627 0.049025 0.876476
-0.003895 -0.016386 0.964146
-0.142518 0.045418 0.758399
0.038249 -0.197213 0.607649
0.114815 -0.032071 0.786865
-0.076134 0.184126 0.552637
0.208908 0.294773 0.284589
0.172053 0.243344 0.421907
-0.375188 0.149139 0.196300
0.008800 -0.050705 0.896241
0.241805 0.199657 0.334402
0.211147 -0.441412 0.054355
-0.356679 0.312192 0.096571
-0.065048 -0.204427 0.607647
0.090457 0.023382 0.810029
0.081702 0.217799 0.527780
-0.161159 0.197021 0.488949
0.079723 0.112859 0.744984
-0.074254 -0.183484 0.596874
-0.135159 0.040475 0.681942
0.046894 -0.257175 0.454019
0.184757 -0.289895 0.325820
0.000005 -0.007817 0.978027
-0.009492 -0.070878 0.889224
-0.156924 0.161199 0.559501
0.167484 0.259194 0.421231
0.041033 0.051232 0.890715
0.181993 0.295584 0.318040
-0.385116 0.238316 0.103648
0.288408 0.126220 0.339524
0.050228 0.031815 0.942741
-0.225197 0.318122 0.229558
0.206450 0.050603 0.564980
0.036611 -0.015436 0.923519
-0.355117 0.278035 0.110370
0.023174 -0.282503 0.390797
0.400781 0.252913 0.028865
0.329771 -0.240851 0.189509
0.133001 -0.052672 0.750255
-0.214347 -0.429531 0.026994
0.035378 -0.337273 0.342637
0.238752 -0.319843 0.203193
0.420700 0.089476 0.149620
-0.140690 -0.040222 0.741311
0.083964 0.078816 0.759951
0.031496 -0.002092 0.943316
0.056880 0.251076 0.503817
-0.498058 -0.072212 -0.009885
0.300528 0.240747 0.257434
0.028305 -0.051886 0.854943
0.120666 0.006658 0.759534
-0.091011 -0.009442 0.818258
-0.192444 -0.279111 0.352805
0.304916 0.089962 0.384762
-0.015820 -0.023695 0.909782
0.167045 -0.346649 0.212501
0.144951 -0.219930 0.477471
0.024422 -0.029945 0.888602
0.148974 0.011627 0.697674
-0.017083 -0.016221 0.958218
0.248258 -0.015483 0.532244
0.058871 0.134668 0.707568
-0.306002 0.193187 0.294046
-0.380778 -0.080360 0.249050
0.099535 -0.456056 0.048627
-0.452661 -0.192059 0.004681
-0.002806 0.063432 0.889034
0.012751 -0.049368 0.908297
-0.002084 -0.125490 0.733644
0.129619 0.076078 0.704370
-0.089980 -0.068295 0.774557
-0.391732 -0.079510 0.190717
-0.124176 -0.202144 0.563510
-0.200347 0.172880 0.408882
0.318863 0.156840 0.268636
0.017219 -0.060619 0.915055
0.102067 -0.034796 0.778079
0.274414 -0.070000 0.458315
0.006056 0.032695 0.925644
0.317965 -0.159651 0.268656
-0.103083 -0.376437 0.253324
-0.174379 0.325843 0.255286
0.090461 -0.096319 0.732213
-0.217133 -0.127684 0.469579
-0.057844 0.205111 0.573185
-0.412787 0.043103 0.178722
-0.098439 0.084018 0.714416
0.096757 0.154659 0.619991
0.049422 0.377350 0.267042
-0.432401 -0.122202 0.089361
0.043909 -0.387403 0.162846
0.287502 0.105468 0.413401
-0.105884 0.201055 0.540080
0.144356 0.048238 0.649943
-0.205031 0.190588 0.427048
0.417745 0.164427 0.104115
0.025046 0.010771 0.934594
0.212574 -0.237104 0.369652
-0.186443 0.256913 0.398372
0.030791 0.045924 0.938114
0.210858 -0.431172 0.055070
0.056075 0.097622 0.799303
0.105980 -0.206560 0.557442
0.180408 -0.064307 0.626023
-0.043646 0.061720 0.856497
0.298453 -0.072844 0.393090
0.493884 -0.053546 0.013823
0.016041 0.491984 0.017933
-0.287917 0.309130 0.161538
0.071782 -0.042489 0.820892
-0.009987 -0.291941 0.464164
0.068874 -0.209995 0.563162
-0.015167 0.056648 0.885459
0.004722 0.032146 0.918953
-0.118564 0.115614 0.651902
-0.006780 0.007911 0.999684
0.266946 -0.128407 0.401784
0.332162 0.302280 0.082856
0.242444 -0.135005 0.444395
-0.316241 -0.086849 0.328572
0.009856 -0.010802 0.995768
0.012017 -0.017141 0.943925
0.169672 0.174748 0.520287
0.148142 -0.144239 0.596997
0.403069 -0.258853 0.054992
0.401450 -0.028593 0.194771
-0.012669 -0.180136 0.597888
0.054294 -0.136829 0.701151
-0.043832 -0.215625 0.572490
0.470173 -0.010630 0.051373
-0.033794 0.041153 0.906250
-0.068845 0.019549 0.874437
-0.102236 -0.030960 0.827483
-0.170110 -0.449120 0.006693
0.192349 0.352450 0.197988
0.148704 -0.058980 0.678923
-0.032676 -0.298986 0.380410
-0.002005 -0.084981 0.784169
