x y z
-0.055783 0.008713 0.923353
-0.483227 -0.077054 0.040570
0.112355 -0.081295 0.763967
-0.260076 0.308089 0.199918
0.328968 -0.306520 0.111874
-0.129251 0.263260 0.431991
-0.071886 0.250315 0.444091
-0.398578 -0.083891 0.194076
0.026642 -0.012211 0.955956
-0.054542 -0.454134 0.085379
-0.375720 0.011590 0.274182
-0.034784 0.031919 0.850070
0.204503 -0.122833 0.468507
0.011328 0.285834 0.444449
0.166338 -0.013840 0.648741
-0.220656 0.020907 0.567194
-0.008338 -0.000280 0.995253
0.260586 0.227385 0.303497
0.188745 -0.178207 0.476132
0.047707 0.181802 0.612289
-0.121914 0.216115 0.532518
-0.188069 -0.422972 0.031258
-0.214064 0.007127 0.538823
0.020845 -0.055807 0.910018
0.172987 -0.286172 0.340954
0.281103 0.282495 0.199607
-0.254380 -0.151006 0.420062
0.043548 -0.492024 0.000629
-0.197691 0.072315 0.569433
-0.260376 0.045426 0.471996
-0.046226 0.035522 0.874510
0.161561 -0.142823 0.537226
0.240779 -0.183670 0.401155
0.083681 -0.390961 0.209823
-0.025359 -0.098109 0.832527
-0.121574 0.204490 0.523772
-0.242992 0.219451 0.356052
0.093082 0.438930 0.115346
-0.128962 0.099515 0.671717
-0.039805 -0.011234 0.939667
0.027480 -0.162982 0.685774
0.214548 0.105990 0.511087
-0.306213 -0.110380 0.329683
-0.183681 -0.146917 0.555168
0.365018 0.168870 0.189957
-0.161269 -0.199943 0.483329
0.026248 -0.023619 0.944893
0.098139 0.186447 0.564917
-0.037015 -0.036696 0.878461
-0.072631 0.261806 0.464089
0.001735 0.363757 0.294996
0.033994 0.255066 0.505034
0.065367 -0.100008 0.789548
0.074354 -0.281878 0.384201
-0.011423 -0.006237 1.003395
-0.025314 -0.198269 0.629917
-0.179463 -0.238909 0.413352
0.001995 0.314170 0.374787
0.123190 0.093904 0.691451
0.000769 0.030108 0.970110
0.302750 0.001351 0.402834
-0.040257 -0.317862 0.334603
0.033692 -0.023843 0.922009
0.032436 0.002973 0.959926
0.167160 0.223341 0.439222
0.011683 -0.172138 0.673897
0.078556 0.049430 0.785012
-0.017010 -0.000399 0.980290
-0.232900 -0.070208 0.480118
0.274411 -0.145465 0.323880
0.109471 0.093023 0.723390
-0.238372 0.126728 0.474926
-0.211287 -0.427376 0.033908
-0.025482 0.036419 0.943378
-0.090449 -0.145669 0.631675
-0.100638 0.030994 0.765706
0.076799 0.232535 0.506688
0.354265 0.035307 0.315483
-0.212182 -0.074042 0.511231
0.065883 0.173634 0.634822
-0.432347 -0.164173 0.075973
0.057825 0.156342 0.669240
-0.421590 0.186966 0.064600
0.205060 -0.015142 0.630210
0.170159 -0.079686 0.589170
0.155928 0.119183 0.621588
-0.234628 -0.137073 0.464188
0.110637 0.171861 0.583122
0.330575 0.207950 0.259078
0.348844 0.213891 0.169342
-0.049436 0.278818 0.439241
0.510133 -0.051983 0.027657
0.383106 -0.177833 0.168764
0.334808 0.283176 0.138676
0.129881 -0.444360 0.117770
-0.046932 -0.046451 0.866381
-0.223498 -0.048267 0.570998
-0.444478 -0.217950 0.028155
0.010460 -0.001865 0.990917
-0.015734 -0.012113 0.982412
0.136905 0.222913 0.478714
0.028539 -0.146561 0.667763
-0.146065 0.174747 0.517312
0.064469 0.177549 0.625013
0.255337 0.100837 0.445644
0.068253 -0.192513 0.561916
0.258131 0.161836 0.387952
0.093073 0.004397 0.833276
0.192786 -0.222421 0.408023
-0.207458 0.025051 0.571076
-0.482336 0.082321 0.007633
0.020616 -0.500778 0.006334
0.008898 -0.246788 0.514052
0.015567 0.056787 0.891742
0.204445 0.106769 0.539815
-0.089386 0.277958 0.418260
0.110292 0.059209 0.738792
-0.277864 -0.060279 0.393012
-0.230086 -0.046811 0.577438
-0.238954 -0.274223 0.282033
-0.195680 -0.238441 0.383797
-0.188579 0.273872 0.355857
-0.069799 -0.068611 0.786902
0.024135 0.064696 0.876120
-0.066523 -0.186125 0.608430
0.075971 0.204292 0.504262
0.061123 -0.396667 0.182838
0.483030 -0.048808 0.054239
-0.351537 0.285855 0.083726
0.170909 0.461241 0.013784
0.158802 -0.310160 0.330157
-0.055974 -0.016404 0.888031
0.007718 -0.159260 0.740201
-0.294155 -0.210457 0.262128
0.179402 0.417381 0.052758
0.056046 -0.050410 0.832183
-0.013677 0.059999 0.867348
-0.162405 0.132959 0.598785
0.227371 0.150893 0.469200
0.107412 0.050920 0.743054
0.118129 0.077891 0.727711
0.153205 0.096304 0.644712
-0.193669 0.024766 0.635944
-0.105784 0.458228 0.044090
-0.042508 0.038042 0.920451
0.109257 0.301614 0.375512
-0.046557 0.221322 0.518659
0.301578 -0.053233 0.421923
-0.044102 -0.308972 0.388549
-0.170129 0.409379 0.144240
0.108589 0.219911 0.519144
0.025291 0.002261 0.990709
0.339783 -0.036197 0.301252
0.048422 -0.016496 0.912725
-0.418080 0.066282 0.151194
0.001564 0.025994 0.967695
0.057765 -0.103108 0.737417
-0.152684 -0.116478 0.601648
-0.032615 -0.029603 0.920232
0.157114 -0.151991 0.581736
0.070577 -0.200315 0.571909
-0.000967 0.005241 0.996089
0.259073 -0.151111 0.411025
-0.235296 -0.314044 0.216654
-0.267867 0.113982 0.441180
0.036109 0.300257 0.420429
0.310946 -0.080790 0.380869
-0.010308 -0.159846 0.697872
0.299463 -0.055193 0.369620
0.003027 -0.004359 0.989313
-0.187254 -0.458542 0.015949
-0.027358 -0.019142 0.897648
0.015946 -0.191805 0.628334
-0.048418 0.061555 0.877143
0.269875 0.072910 0.434453
-0.223038 0.292640 0.274376
0.081946 0.251530 0.506686
0.422063 0.071938 0.150157
0.134796 -0.264641 0.447498
0.013914 0.086179 0.825965
-0.018785 0.062786 0.868584
-0.488133 -0.045412 0.022487
0.069208 -0.399092 0.201293
-0.161130 -0.134534 0.571716
0.161850 0.318990 0.302948
-0.008847 -0.013113 1.003198
0.030404 -0.200004 0.592020
-0.126050 -0.165967 0.593939
-0.219065 -0.062834 0.526086
0.005753 -0.004699 0.999033
-0.096318 0.439505 0.131246
-0.163604 -0.300751 0.294243
0.068863 -0.150394 0.674188
0.177813 -0.334309 0.257989
0.047288 0.401600 0.169197
-0.086266 -0.294536 0.360354
-0.411508 0.086977 0.159416
-0.340725 -0.074340 0.261084
0.091691 -0.199012 0.569611
-0.064596 -0.348013 0.297736
