x y z
0.046269 0.052536 0.859988
0.284341 0.157691 0.349719
-0.202723 -0.401664 0.100154
-0.229725 -0.054563 0.527768
-0.150063 0.227514 0.454907
-0.145336 -0.076434 0.671582
-0.144537 0.055284 0.690502
-0.031129 -0.003967 0.937238
-0.132158 0.208830 0.505730
0.104295 -0.111837 0.694158
0.132065 -0.188376 0.539885
-0.189610 -0.119672 0.551565
-0.018676 0.130936 0.735478
-0.009035 0.011705 0.970426
-0.283536 0.119777 0.384405
0.002642 -0.033640 0.932514
0.041919 0.425291 0.145295
-0.147300 -0.165021 0.557602
-0.367303 -0.259638 0.100393
0.190187 -0.325259 0.246436
-0.007923 -0.087037 0.825206
-0.021049 -0.009828 0.953540
-0.307815 0.304117 0.134582
-0.053352 0.073066 0.819057
-0.016571 0.003845 0.965977
-0.000544 -0.001777 0.996282
0.117557 0.184519 0.562431
-0.055960 0.091587 0.785341
0.041252 0.104154 0.775949
-0.000542 0.024541 0.950905
0.406688 0.028804 0.184587
-0.409256 -0.133095 0.139292
0.080012 0.011481 0.838338
-0.234331 -0.361384 0.138585
-0.022437 -0.267380 0.463361
0.047032 0.376385 0.241375
0.387085 -0.185770 0.141290
-0.278743 -0.213726 0.297500
-0.339132 0.114416 0.284174
0.333361 -0.275756 0.134736
-0.297785 -0.025574 0.402238
-0.361879 0.263705 0.104463
0.394781 0.056337 0.202440
0.298164 0.134720 0.345626
-0.182669 0.091794 0.591129
-0.285433 -0.175666 0.329685
0.051223 0.034973 0.875953
-0.139950 0.266073 0.398732
-0.424474 0.216390 0.047103
-0.126517 -0.044436 0.731813
0.223001 0.113590 0.499471
-0.254475 0.427024 0.005803
-0.107849 -0.200660 0.544387
-0.001810 -0.031800 0.936297
-0.030330 -0.043943 0.893212
0.151473 -0.101148 0.635720
-0.092704 -0.206352 0.547560
-0.009686 0.005616 0.977607
0.120881 -0.123399 0.654518
-0.077211 0.096655 0.752583
-0.019957 0.424129 0.150803
0.309620 0.152585 0.309647
-0.117641 0.235816 0.472937
0.170628 0.119695 0.583151
0.019266 -0.193822 0.610446
-0.442999 -0.012995 0.113621
0.184546 -0.441722 0.042555
0.222253 -0.247099 0.335306
0.255058 -0.242226 0.296500
-0.109690 -0.262631 0.430765
0.149575 0.094744 0.645886
-0.163460 -0.162494 0.539029
0.053196 0.018149 0.887587
0.346738 0.225583 0.172680
-0.410673 -0.116521 0.146233
0.032411 0.042633 0.892892
0.012224 -0.023684 0.946695
-0.044625 0.493159 0.009653
0.187088 0.092679 0.582430
-0.152192 0.017326 0.693650
0.175832 -0.178156 0.499374
0.325833 -0.194027 0.241546
0.261100 0.181077 0.364510
0.122134 0.226677 0.485029
0.120268 0.374630 0.213077
-0.032290 -0.010779 0.931917
0.195637 0.453465 0.012266
0.276916 -0.061661 0.432605
0.062707 0.050718 0.838698
0.143466 0.171706 0.552494
0.015343 -0.017162 0.953959
0.117575 0.280702 0.391337
-0.339532 0.112609 0.284562
0.100287 0.019929 0.795504
0.003534 -0.091553 0.816758
-0.112758 -0.463977 0.045036
0.286192 0.009251 0.427317
-0.075848 -0.337885 0.307413
-0.067869 0.473613 0.043098
0.045835 0.025810 0.894796
-0.306498 0.146671 0.320432
0.019914 0.078108 0.838787
0.062133 -0.131087 0.709867
-0.108514 0.069890 0.741853
-0.074713 -0.088762 0.767959
-0.187800 0.142438 0.528587
-0.098037 -0.222403 0.513896
-0.067097 -0.348780 0.289650
-0.145193 0.149578 0.583084
0.153971 0.165280 0.548229
-0.136882 -0.174065 0.557121
-0.195789 -0.142905 0.515211
-0.062631 0.033893 0.857572
-0.008187 0.006205 0.979455
0.279900 0.181334 0.332989
-0.065235 0.251093 0.481143
-0.186927 0.341418 0.221520
-0.237360 -0.381619 0.101172
0.377025 -0.114756 0.211795
0.133022 -0.147090 0.603362
-0.032463 0.190932 0.612656
0.429767 -0.162981 0.080733
-0.340733 -0.274698 0.124654
0.082733 0.260420 0.453508
-0.106926 -0.197848 0.550213
-0.068653 0.090529 0.772768
0.337850 -0.094638 0.298291
-0.224978 -0.132978 0.477321
-0.466242 0.131548 0.031111
0.065767 -0.183430 0.610273
0.211808 -0.119945 0.513176
0.083529 0.081719 0.766289
0.033118 0.131636 0.728524
0.153149 -0.083334 0.651293
0.015111 0.222147 0.554679
0.275656 -0.132237 0.388533
-0.199673 0.192331 0.445524
0.023038 -0.405725 0.187242
-0.030665 0.032164 0.911120
0.137384 -0.054417 0.704463
-0.268151 0.413948 0.013576
0.207744 -0.266460 0.324252
0.214535 -0.423284 0.050906
-0.055562 0.399212 0.193881
-0.063223 0.052371 0.835806
-0.036070 -0.061339 0.857683
0.432251 0.026541 0.133869
0.284880 0.350536 0.096601
0.249964 -0.052646 0.489105
0.075072 0.341417 0.300854
0.075686 0.046930 0.821891
-0.005030 -0.044085 0.911258
0.015793 -0.004540 0.967136
-0.103671 0.150033 0.635266
0.424007 -0.249286 0.016282
0.105510 0.262806 0.433611
-0.244944 0.075551 0.487338
-0.132212 0.443004 0.075376
0.257494 -0.021674 0.483190
0.346006 0.166910 0.231680
-0.037489 0.221767 0.550174
-0.115710 0.021233 0.764717
0.252298 -0.371784 0.101384
-0.004645 0.009700 0.978490
0.245540 -0.000593 0.508919
0.115807 -0.034584 0.758278
0.143745 0.002089 0.712481
-0.155459 -0.038313 0.679778
0.479492 -0.078529 0.028240
0.062752 0.295099 0.396606
-0.177286 0.336952 0.238509
-0.155993 -0.038809 0.678504
0.112099 -0.001474 0.775782
-0.398518 0.137725 0.156710
0.369274 -0.071977 0.247554
-0.301478 -0.219985 0.253590
-0.019200 -0.174925 0.648049
0.109467 0.342243 0.281354
0.181804 0.303240 0.292873
0.159306 -0.272910 0.367994
0.223626 -0.407771 0.069869
-0.033469 0.022626 0.919200
0.105874 0.239138 0.476947
0.231963 0.409409 0.058888
-0.062124 -0.025689 0.865549
-0.005859 0.049543 0.900223
0.038384 -0.063613 0.851408
0.262506 -0.236874 0.292840
0.009659 -0.000463 0.980659
0.003159 -0.077704 0.844464
0.052976 0.198720 0.588680
-0.041589 -0.023144 0.904809
0.123706 -0.410631 0.142280
0.169790 -0.124367 0.579070
0.114555 -0.058343 0.742887
-0.045088 -0.225808 0.539469
-0.006998 -0.103340 0.792847
-0.280765 -0.366749 0.076239
0.074956 0.461458 0.064987
0.173996 -0.389981 0.145927
