x y z
0.018651 0.000389 0.976131
-0.283038 -0.147010 0.368310
-0.352398 0.019008 0.292757
0.132012 0.069569 0.687238
0.007551 0.056836 0.884677
-0.326760 -0.003553 0.394399
-0.337468 -0.277510 0.109235
0.026419 -0.259279 0.489049
0.017755 0.079256 0.874547
-0.082476 -0.137378 0.722071
-0.014027 0.035565 0.920115
-0.005395 0.002115 0.944306
0.333024 0.325393 0.065506
-0.342545 -0.190524 0.218295
0.087444 0.104141 0.712300
0.026871 0.106809 0.771026
-0.045942 -0.039959 0.889803
0.043015 0.024206 0.935767
0.013914 -0.015284 0.948475
-0.413203 -0.242006 0.051962
-0.045973 -0.006430 0.901720
0.385000 -0.107685 0.192757
0.011748 0.188127 0.604506
-0.187851 0.441049 0.015651
-0.033089 -0.035881 0.907389
0.358389 -0.038267 0.284890
-0.001946 0.043425 0.877676
0.343921 -0.029847 0.306365
0.069896 -0.167151 0.650088
-0.019391 -0.257465 0.470166
-0.222556 -0.053168 0.550811
-0.180508 0.398589 0.125722
-0.264941 -0.001412 0.425134
-0.123346 -0.078584 0.735621
0.135326 -0.008822 0.694980
-0.074239 0.359210 0.247683
0.105743 0.025720 0.792604
0.095951 -0.376628 0.221613
0.379762 0.276508 0.057386
0.121176 -0.011768 0.766199
0.139190 -0.270164 0.367566
0.134829 0.039902 0.712354
-0.049820 -0.010627 0.851582
0.012369 0.007425 0.959195
-0.321014 -0.089285 0.370927
-0.343900 -0.076622 0.309458
-0.113338 -0.030133 0.767546
0.359395 -0.103615 0.272152
0.204466 -0.228513 0.389004
0.015332 0.127126 0.725772
0.005319 0.010550 1.004139
-0.033581 -0.210503 0.584005
0.051951 -0.006083 0.887483
-0.273859 0.007119 0.422028
0.147831 0.408829 0.118575
-0.005633 -0.029626 0.938935
-0.477567 0.033290 0.012175
-0.081610 -0.262063 0.476423
-0.048038 -0.119253 0.688558
-0.035424 0.454611 0.087698
-0.067056 0.019935 0.869082
0.210151 0.222609 0.389957
0.174663 0.298119 0.264567
0.082700 0.080951 0.780388
-0.034059 0.337080 0.296104
-0.041251 -0.061523 0.862539
0.136446 -0.078871 0.692524
-0.369291 -0.009267 0.262131
0.265183 0.368074 0.058660
0.042365 0.016422 0.909099
0.020071 -0.206022 0.546784
0.396470 0.244830 0.040964
-0.212438 0.180293 0.452404
-0.176958 0.424465 0.094060
0.017341 -0.120934 0.777190
-0.280457 -0.076474 0.460339
0.211073 0.136506 0.525643
0.098387 0.012669 0.830598
0.060819 0.027458 0.902566
0.030428 -0.003973 0.931668
-0.306162 0.287594 0.139254
-0.201118 0.427186 0.022619
-0.100188 0.039185 0.754519
-0.016737 0.142419 0.721509
-0.067102 0.032854 0.887147
0.236798 0.097028 0.453414
0.070377 -0.292752 0.372033
0.226587 -0.396097 0.095755
0.254147 0.113249 0.410062
0.005414 -0.344085 0.298420
0.138300 0.140284 0.579714
0.122830 0.154499 0.629106
0.186923 -0.033874 0.600503
-0.421431 -0.114164 0.089870
-0.126277 -0.246927 0.447251
-0.153299 0.067302 0.678775
-0.343457 -0.084925 0.291870
-0.253555 0.207009 0.304204
-0.029820 0.158203 0.651064
0.074650 0.250486 0.487047
-0.094693 -0.463357 0.056471
-0.430729 0.082181 0.123264
0.140078 -0.095582 0.675873
-0.250591 0.135298 0.436878
-0.235913 -0.357133 0.117907
0.378591 -0.087831 0.170496
-0.411391 -0.281131 0.003848
0.087212 0.125789 0.700288
0.173058 -0.112506 0.624763
-0.087847 -0.485736 0.008481
-0.149910 0.365239 0.203962
0.063606 0.378911 0.249103
-0.263732 0.127897 0.407378
0.234653 -0.077016 0.480818
0.262708 0.111245 0.430494
-0.131701 -0.271983 0.376226
-0.004718 0.003424 0.998063
-0.086177 -0.354404 0.269386
0.272763 -0.102886 0.420505
0.120001 -0.197995 0.525995
0.275672 0.041594 0.434757
0.007809 -0.037116 0.944352
-0.170196 -0.199823 0.460002
-0.301809 -0.342193 0.073781
0.397208 0.180308 0.123581
0.191440 -0.448453 0.020477
0.099043 -0.290543 0.379357
0.087730 0.096901 0.737696
0.008441 0.090022 0.824896
-0.095811 -0.213429 0.538384
-0.003766 -0.009763 0.967319
0.372842 -0.002302 0.274439
0.114496 0.291917 0.389772
-0.136079 0.179364 0.554116
0.034950 -0.050922 0.854858
0.391711 0.088553 0.162242
-0.279842 -0.018098 0.473870
-0.181320 0.080978 0.636159
-0.181959 0.162889 0.534889
-0.162693 -0.190386 0.499642
-0.006380 0.032895 0.955967
0.163062 -0.234370 0.444441
0.180048 -0.155003 0.494694
0.051918 -0.052559 0.875621
0.275847 0.396225 0.045468
-0.015592 -0.011008 0.976552
0.012235 0.040448 0.906070
-0.063859 -0.010423 0.892500
-0.197624 -0.136060 0.539563
0.422806 -0.132404 0.112869
-0.030992 -0.043795 0.882361
0.364308 -0.022633 0.264844
0.308188 -0.014667 0.346777
0.038917 0.096987 0.802607
0.452197 0.114214 0.100256
0.054856 0.017668 0.896900
-0.063118 0.091272 0.817964
0.024854 0.124922 0.750546
-0.065660 -0.131229 0.741712
-0.080920 0.242973 0.485485
0.467901 0.054219 0.037615
-0.006555 -0.006684 0.983699
0.062079 0.322975 0.364671
0.025076 -0.176914 0.594529
-0.035985 -0.021307 0.913766
-0.336372 -0.218713 0.235687
-0.268955 0.107030 0.392440
0.194294 -0.451251 0.045101
0.440804 -0.072787 0.113894
-0.004113 0.005648 0.992137
0.071147 -0.042533 0.837928
0.040192 -0.405054 0.166493
-0.021504 -0.175374 0.662643
0.435270 0.143983 0.040390
0.333654 -0.355451 0.026873
-0.205960 -0.022534 0.590847
-0.155494 -0.343634 0.225643
0.032189 0.039054 0.952911
0.266316 0.027199 0.443490
0.067945 0.079551 0.793397
0.051350 0.031472 0.878459
-0.033218 0.044463 0.863110
-0.381024 0.162515 0.136802
-0.262420 -0.179787 0.403562
0.281059 -0.215054 0.340176
0.174177 0.168063 0.543870
0.328295 -0.112440 0.298766
-0.472567 0.167430 0.032201
0.325773 -0.236294 0.213893
0.014206 -0.000067 0.968455
-0.173913 0.047347 0.607427
-0.223271 0.080551 0.532633
0.042470 -0.089056 0.801535
-0.196223 0.323359 0.226369
-0.081963 -0.444178 0.078518
-0.460366 0.116548 0.053040
-0.381839 -0.262619 0.055531
-0.321009 -0.218471 0.240311
-0.168082 0.138995 0.561986
0.267137 -0.217389 0.328475
