x y z
0.036445 0.147722 0.695697
0.083590 -0.017434 0.829222
0.120344 -0.119438 0.660895
0.055487 -0.468339 0.056771
0.043025 0.313638 0.366849
-0.293127 0.184487 0.307298
-0.283109 0.039621 0.428265
-0.017816 -0.058075 0.878506
-0.044113 -0.046629 0.871622
-0.020464 0.335904 0.326947
0.228760 -0.083069 0.513248
0.412117 0.100041 0.151829
-0.136012 -0.313288 0.316922
-0.056283 0.172346 0.637394
0.027320 -0.195588 0.605026
0.086419 0.117682 0.707992
0.146596 -0.194402 0.513040
0.438298 0.019016 0.122580
-0.157208 -0.239461 0.427092
0.211164 0.339349 0.200631
-0.140728 0.137509 0.606488
-0.137366 0.202728 0.510232
-0.259030 0.065936 0.465419
-0.123091 -0.421953 0.120918
-0.394710 -0.303486 0.004208
0.197183 0.285015 0.306848
-0.060027 0.006487 0.879247
0.119785 -0.063044 0.729275
-0.103104 -0.023391 0.788552
0.153164 -0.115288 0.616591
0.006861 0.130709 0.738222
-0.134883 0.420328 0.117121
-0.013058 -0.048811 0.898946
0.243057 -0.260444 0.287519
-0.007238 0.235230 0.529318
-0.233115 -0.107297 0.486755
0.317330 -0.046859 0.358459
-0.369607 0.102078 0.233113
0.004081 -0.243253 0.513425
-0.292222 0.232041 0.253711
-0.076462 -0.406547 0.172649
-0.087205 0.077771 0.766308
-0.355478 -0.133076 0.240858
-0.483810 -0.121838 0.002169
-0.408481 -0.086807 0.164793
0.213381 0.120397 0.509993
-0.176010 -0.390647 0.143064
0.185966 -0.040140 0.619502
-0.143717 -0.177761 0.542819
-0.065342 0.380276 0.228301
0.204340 -0.191417 0.440018
-0.274581 0.127240 0.394741
0.315261 0.182888 0.271062
-0.086609 -0.472821 0.038623
-0.256210 -0.273712 0.250167
0.034804 0.030865 0.906962
0.010902 0.006729 0.974377
-0.274117 0.298519 0.189436
-0.001571 -0.091766 0.816441
-0.294115 -0.394982 0.015086
0.159375 0.112301 0.610067
-0.451532 -0.045614 0.092340
-0.119966 -0.029060 0.753129
-0.165754 -0.073257 0.637559
0.434885 0.212002 0.032386
0.398018 0.259872 0.049313
0.287559 -0.169031 0.332882
0.295411 -0.226215 0.255847
0.357785 0.304218 0.060726
-0.256164 0.097393 0.451892
-0.337168 -0.321730 0.067922
-0.070510 -0.240371 0.499001
0.294361 -0.269662 0.201586
-0.475570 -0.114503 0.021679
0.083508 0.323443 0.331900
0.076799 0.045685 0.821280
0.103407 0.326983 0.314112
0.041043 -0.089183 0.803652
0.206625 0.134910 0.506464
-0.018017 -0.007972 0.960597
0.218826 0.076253 0.536537
0.100949 -0.092087 0.726719
-0.270787 -0.137802 0.392332
-0.328103 0.019084 0.342685
-0.336990 -0.210877 0.204937
0.064844 0.136552 0.697668
0.132337 -0.227192 0.474151
0.157051 0.118061 0.607045
-0.100001 -0.070567 0.755215
-0.153602 -0.052803 0.675151
0.051385 -0.399008 0.195393
-0.238251 -0.129710 0.457458
-0.137253 -0.027039 0.720217
-0.165691 0.159413 0.540149
0.149996 -0.265264 0.390528
-0.029810 0.025354 0.921733
-0.011665 -0.029423 0.936699
0.005002 0.303068 0.393782
0.261633 -0.065053 0.460802
0.244432 0.191557 0.378901
-0.008957 -0.001609 0.981800
-0.101633 0.179712 0.587080
-0.269438 -0.054928 0.450040
0.136463 -0.103179 0.657842
-0.037367 -0.076722 0.829325
0.272080 0.258659 0.249183
-0.233525 0.091481 0.498392
-0.001377 -0.038125 0.923701
0.008371 -0.188241 0.623145
-0.110859 0.010625 0.777265
-0.052201 0.154830 0.673215
0.029813 0.065879 0.855379
-0.045403 0.034153 0.886372
0.141218 -0.099868 0.654075
0.173791 0.382774 0.159241
-0.275901 -0.364257 0.086097
0.117164 0.045469 0.748644
-0.067907 -0.126642 0.712601
0.430066 0.048678 0.134377
0.081725 -0.120105 0.709454
0.369728 -0.055159 0.252360
0.319329 -0.069231 0.346506
0.112553 -0.247748 0.455768
0.361412 -0.239756 0.132587
0.039636 -0.002510 0.920568
0.225844 -0.057305 0.533998
0.013350 -0.031024 0.932452
-0.105140 0.385812 0.200237
-0.002378 -0.061039 0.877829
-0.015704 -0.019486 0.949947
-0.009027 0.209745 0.580122
-0.275876 -0.085673 0.422256
0.390844 -0.274223 0.045103
0.278796 0.366280 0.079373
-0.088337 -0.098267 0.735729
0.217938 0.044902 0.554969
0.028929 -0.364951 0.267809
0.163761 -0.128832 0.583273
0.022945 0.003915 0.953446
0.016203 0.192451 0.613736
-0.027803 0.316929 0.363707
0.073920 -0.147990 0.669151
-0.178578 0.171737 0.504485
0.032273 0.216179 0.562850
-0.111816 0.333111 0.297246
-0.392042 -0.029645 0.213678
0.036397 -0.203676 0.586196
0.276606 -0.380719 0.058814
0.145295 0.177430 0.541341
-0.021317 -0.003060 0.956929
0.373570 -0.203355 0.149335
-0.044617 -0.068012 0.837318
-0.051403 0.489195 0.016224
0.233868 -0.029150 0.528645
0.276069 -0.085362 0.422071
0.074624 -0.002537 0.850665
-0.218658 0.446423 0.005808
-0.140553 -0.134779 0.610536
0.056159 0.004937 0.887250
0.283844 -0.001314 0.432307
-0.041108 -0.254778 0.483854
-0.178557 0.021195 0.640379
0.020973 -0.451079 0.096868
0.169246 0.195403 0.482983
-0.057396 0.247046 0.492748
-0.362330 -0.240883 0.129810
0.122046 0.234772 0.470800
-0.274747 0.224810 0.289998
0.052735 0.045298 0.860962
0.193419 0.033058 0.607553
0.100205 0.043064 0.781866
-0.037159 -0.062300 0.854921
-0.161218 -0.368853 0.194907
-0.399569 -0.182033 0.121840
0.030755 0.302050 0.392776
0.074389 -0.099490 0.751550
-0.045107 0.057543 0.853769
-0.224377 0.046073 0.541882
0.353393 -0.062648 0.282193
-0.155547 -0.216624 0.466630
-0.140034 0.025393 0.715365
-0.324700 0.249768 0.180697
-0.006696 -0.041846 0.915244
-0.045729 -0.200556 0.588594
-0.405244 0.033475 0.186752
-0.214852 0.195076 0.419600
-0.094354 -0.087505 0.742630
-0.343959 -0.202323 0.201896
0.111093 0.039765 0.764009
0.056775 0.072986 0.815064
0.043086 0.044720 0.875803
-0.206963 0.442374 0.023214
-0.409120 -0.049078 0.175893
0.066940 0.056726 0.824515
0.024797 -0.107300 0.779744
-0.283437 0.298263 0.177084
0.018717 -0.108865 0.779075
-0.060293 0.165536 0.647651
-0.012123 -0.007187 0.971814
-0.064562 0.075715 0.800993
