x y z
0.309778 0.035779 0.376326
-0.047162 0.148305 0.688753
0.004352 -0.065995 0.867723
-0.158306 0.061659 0.660219
-0.135558 -0.284639 0.369459
0.253156 0.357046 0.124627
0.132719 -0.051885 0.714999
0.270987 -0.011474 0.457540
0.153210 -0.068785 0.664115
0.335004 0.109966 0.294819
-0.117483 -0.134455 0.642898
-0.007146 -0.053929 0.891199
0.106186 0.036328 0.775543
0.281116 0.407976 0.009100
0.378632 -0.088398 0.222373
-0.266956 0.153645 0.383973
-0.081252 0.430855 0.123102
0.378065 0.293048 0.043318
0.031141 -0.004590 0.937045
0.350651 -0.068401 0.285479
0.480917 -0.094548 0.019755
0.006761 -0.021313 0.955281
-0.095704 0.060686 0.773354
0.102979 0.423406 0.128502
-0.086143 0.105416 0.727727
0.239584 -0.141728 0.443270
0.057447 0.014482 0.881512
-0.054893 0.214143 0.557866
-0.084237 0.107650 0.726617
-0.017875 0.006997 0.961609
0.231565 0.061590 0.520768
0.013131 0.012270 0.964058
-0.060233 -0.235355 0.514120
0.204250 -0.246626 0.359555
-0.091280 -0.046557 0.795065
-0.246593 0.083004 0.479624
-0.284626 -0.144725 0.361385
-0.010887 0.035857 0.925052
0.010523 0.059525 0.879104
-0.268803 -0.057463 0.450247
-0.012615 -0.025072 0.943866
0.305500 -0.082868 0.366921
-0.452085 -0.046706 0.091018
0.252428 -0.099345 0.457453
0.028404 -0.044849 0.893826
-0.228652 -0.179993 0.418006
0.436935 0.005703 0.126056
-0.310734 -0.090524 0.352698
0.043389 -0.022858 0.901916
0.139869 -0.456483 0.045140
0.181939 0.139094 0.541965
0.100673 -0.027998 0.791012
-0.030606 0.001519 0.938712
0.055819 0.190997 0.602028
-0.071142 -0.123392 0.715136
0.075159 0.039659 0.830039
-0.071709 0.485254 0.018952
0.006660 -0.020047 0.957751
-0.153830 -0.312019 0.304243
-0.366264 0.140924 0.215121
0.154745 -0.205863 0.484926
-0.134373 -0.223022 0.479251
-0.435315 -0.211429 0.032112
0.157274 0.040830 0.675025
0.123701 -0.388026 0.185467
0.213187 0.169931 0.454746
0.355838 -0.008747 0.288109
-0.056605 -0.390758 0.210327
-0.412386 0.044399 0.170461
-0.051738 0.290543 0.409772
-0.016147 0.047753 0.899181
-0.102042 0.144431 0.646317
0.200882 0.339101 0.211728
-0.107173 0.008569 0.784971
-0.107821 -0.102132 0.702973
-0.319455 0.333359 0.076573
-0.012903 -0.037848 0.920026
-0.243427 -0.108344 0.467102
-0.001067 -0.045500 0.908974
0.062229 0.008489 0.874388
0.052584 0.073412 0.819397
0.095572 0.179780 0.592790
-0.029776 -0.110367 0.771374
0.003039 -0.244624 0.510715
0.194862 -0.124024 0.538034
-0.071696 0.077064 0.789485
0.258968 0.341847 0.142273
0.192256 0.395036 0.121329
-0.046856 0.395964 0.202546
0.489724 0.093582 0.002830
0.137513 -0.089907 0.671408
0.135818 -0.180883 0.547606
-0.201853 -0.162535 0.481687
0.280378 -0.266411 0.226471
-0.293321 0.124799 0.362467
0.057211 0.025537 0.874697
0.190293 -0.363029 0.180240
0.116826 0.439226 0.091005
-0.094794 0.032969 0.799272
0.086563 0.374866 0.230539
-0.064085 0.016043 0.867874
0.166485 -0.464223 0.013653
-0.453692 -0.180659 0.023325
-0.107675 0.037093 0.772231
0.000820 0.001964 0.995744
0.256570 0.214919 0.330617
-0.258105 -0.380353 0.080681
-0.036872 -0.388131 0.220243
-0.013549 -0.280513 0.438321
0.009922 0.003681 0.978833
-0.035079 -0.013378 0.924913
-0.206511 0.043049 0.578099
0.040284 0.049301 0.872668
-0.413551 -0.273024 0.008907
-0.017205 -0.188230 0.621971
0.090891 -0.084668 0.751565
-0.177498 0.116173 0.575728
-0.014507 -0.026082 0.940310
0.111136 0.163164 0.605165
0.007089 -0.234304 0.531178
-0.311758 0.206657 0.251935
-0.083093 0.019670 0.829221
-0.014955 -0.038164 0.918021
-0.236688 -0.401102 0.068541
0.004163 -0.023258 0.952744
0.002564 0.059162 0.881564
-0.233906 -0.130815 0.463999
-0.044790 -0.004791 0.909910
-0.012931 -0.138625 0.721546
-0.044894 -0.079343 0.817674
-0.398991 0.087631 0.182998
0.033885 -0.254545 0.486420
-0.319005 0.224489 0.219847
-0.032689 0.101681 0.786387
0.301674 -0.070614 0.380344
0.005241 -0.002933 0.987987
0.235368 0.435110 0.010619
0.186573 0.386873 0.140977
0.036238 0.155952 0.679785
-0.115954 -0.115519 0.672647
0.175765 -0.326495 0.258401
-0.144739 -0.138181 0.599782
0.084016 0.071877 0.778866
0.210128 -0.147030 0.487081
0.021248 -0.189211 0.619200
-0.488939 -0.071682 0.011669
0.009392 -0.359909 0.279937
0.087154 0.229946 0.508184
-0.044813 -0.259692 0.472941
0.129172 0.331996 0.287520
0.266239 0.125682 0.411175
-0.018824 -0.008450 0.958732
-0.210697 0.043856 0.569575
-0.211086 -0.206888 0.408865
-0.292862 -0.252638 0.226452
0.455660 -0.134685 0.049702
-0.346886 0.261467 0.131220
0.347686 -0.061167 0.293949
0.053082 0.358319 0.275541
-0.175515 -0.119627 0.575188
0.000097 0.008440 0.983118
0.313928 0.262067 0.182124
-0.088508 -0.043216 0.803010
-0.394583 -0.017240 0.210082
0.137800 0.140467 0.606453
-0.135642 0.158008 0.583513
0.062916 -0.108248 0.749593
0.095788 -0.052785 0.781262
0.026737 -0.087910 0.816229
0.035734 -0.361984 0.272512
0.122124 0.325288 0.305086
-0.142305 0.460039 0.036908
-0.044084 -0.149710 0.687870
-0.143872 -0.076499 0.674109
0.033048 -0.206463 0.581818
0.229601 -0.357924 0.149526
0.145291 -0.005652 0.709199
0.240308 0.030461 0.515539
0.050354 0.123520 0.733221
0.044500 -0.120756 0.742611
-0.022643 -0.006488 0.952892
-0.035974 0.129413 0.731360
-0.107038 -0.076282 0.737122
0.175178 -0.254143 0.382663
0.287231 -0.258776 0.226781
-0.091675 -0.223403 0.517038
0.340053 0.111747 0.284114
-0.279477 -0.169019 0.346777
-0.187042 -0.004786 0.625794
-0.001293 -0.364142 0.271712
0.134653 -0.313356 0.317875
-0.118776 -0.110479 0.675572
0.356538 0.120441 0.247337
-0.091739 -0.082262 0.753561
0.072627 -0.169029 0.632057
0.186197 -0.098371 0.578830
-0.184889 0.032729 0.624472
0.149521 -0.099166 0.641167
0.123294 0.210919 0.511377
0.327906 0.276654 0.141956
