x y z
-0.029988 0.030944 0.901562
0.161671 -0.040412 0.695460
0.048387 -0.230837 0.525491
-0.366005 0.089624 0.239047
0.052159 -0.353257 0.289586
0.062668 0.012078 0.864936
-0.029558 -0.155687 0.686003
0.057658 -0.058147 0.794833
0.105962 -0.188243 0.579696
-0.203816 0.452402 0.046441
-0.181893 -0.181337 0.474105
-0.165361 0.367927 0.195171
-0.274046 -0.114820 0.377347
-0.423101 -0.244021 0.019859
0.075731 0.057321 0.796202
0.271045 -0.155506 0.392212
-0.331298 -0.353158 0.015031
-0.185355 0.090011 0.589135
-0.445094 -0.022636 0.121205
-0.470152 0.003781 0.063598
-0.038897 0.011645 0.927118
-0.285676 0.022235 0.417676
0.089351 0.327091 0.353289
0.038674 0.091264 0.810624
0.357760 0.165748 0.186492
0.043876 -0.011099 0.931872
0.165576 0.065101 0.640603
0.138017 0.328394 0.291002
0.239525 0.158180 0.395175
0.214702 0.180394 0.383955
0.280689 0.338242 0.127768
0.039046 0.133627 0.710223
-0.199717 0.137535 0.497475
-0.166724 0.229651 0.409635
0.313072 0.119517 0.359747
0.032929 -0.021262 0.902963
0.174209 -0.263048 0.346952
0.224372 0.333658 0.192580
0.057636 0.060798 0.812010
0.242850 -0.184712 0.368842
-0.231531 -0.397504 0.057785
0.004485 0.160743 0.682837
-0.228295 -0.060635 0.526239
-0.107065 0.275272 0.423386
0.012093 0.009801 0.936266
-0.068001 0.011553 0.852770
-0.053670 -0.050369 0.831140
0.023848 0.203213 0.568104
0.072282 0.108857 0.732876
0.174737 0.310222 0.321091
0.026153 0.080114 0.774741
0.054204 -0.237878 0.511503
0.192532 -0.090497 0.620891
0.212697 -0.209342 0.417680
-0.027314 -0.046757 0.886921
0.213482 0.345748 0.179235
0.219696 0.026589 0.559674
0.091975 -0.180069 0.577673
0.460219 -0.050689 0.072097
-0.154288 -0.046258 0.684966
-0.048274 -0.205025 0.538845
-0.000587 -0.011401 0.974994
-0.258431 0.120744 0.417966
-0.104148 -0.262756 0.435904
-0.061611 -0.018230 0.850747
-0.227974 0.168977 0.378839
-0.242093 -0.027834 0.531149
0.109474 0.096982 0.725383
0.082204 -0.043612 0.851622
0.203094 0.330227 0.225834
0.102038 0.415374 0.143688
-0.028480 -0.029147 0.881753
-0.246070 -0.336164 0.171297
0.261336 -0.425723 0.037642
0.121132 -0.318223 0.320625
0.140701 -0.481501 0.013187
0.300062 -0.051080 0.382492
-0.325199 0.084140 0.287942
-0.057787 0.212901 0.576487
0.168920 -0.014472 0.707693
-0.030156 -0.097966 0.754506
0.250835 0.322254 0.171739
0.027269 0.294536 0.431048
-0.008039 0.361584 0.292296
-0.031682 -0.270165 0.424920
0.171797 0.358631 0.220531
0.094582 0.302262 0.387889
-0.058160 0.197132 0.605719
-0.159147 -0.016022 0.693823
-0.076006 0.357924 0.272671
0.029227 0.144125 0.689736
0.272885 -0.251764 0.250382
-0.253444 -0.325060 0.164475
0.092268 -0.124290 0.692386
0.182569 -0.098286 0.558473
-0.267680 -0.040205 0.483706
0.111119 -0.027084 0.741945
-0.301121 0.173684 0.284229
-0.407001 0.017347 0.153585
0.116893 -0.389364 0.147859
-0.274544 -0.269216 0.269047
0.239509 0.090531 0.484415
-0.116782 -0.010344 0.775687
-0.086453 -0.410184 0.172029
-0.077064 0.094985 0.778628
0.189612 0.058811 0.590091
0.274081 0.292887 0.211134
-0.144121 -0.004467 0.689804
0.316946 0.007209 0.358256
0.011679 -0.014246 0.984749
-0.069691 -0.070242 0.781101
0.092037 0.176720 0.620357
0.443012 -0.051776 0.094498
0.018972 0.031245 0.945655
-0.019353 0.086578 0.803862
0.008910 -0.003168 0.977530
0.105105 -0.114903 0.705311
0.250292 0.270658 0.300038
0.275788 0.200708 0.323184
0.263496 0.404701 0.015972
-0.175392 0.321491 0.266131
0.294403 0.101980 0.428417
-0.012560 -0.015318 0.974985
0.105715 -0.097019 0.707229
0.194034 -0.086989 0.546017
0.412467 -0.021699 0.154282
-0.341426 0.018793 0.288695
-0.451590 0.164842 0.076369
-0.044061 0.109132 0.782710
-0.001985 0.011233 0.944152
-0.280405 -0.254888 0.243332
-0.152319 -0.222504 0.452348
0.086788 0.030939 0.816776
0.056389 -0.105409 0.758356
0.335202 -0.033254 0.322344
0.015107 0.045435 0.915904
-0.260867 0.308165 0.183912
0.025978 0.126700 0.727393
0.082683 0.158772 0.642941
-0.213172 0.067997 0.530225
0.038008 0.029458 0.912088
0.222842 -0.034325 0.572185
0.056754 0.044383 0.920262
0.223826 -0.079537 0.533149
0.232411 0.051560 0.510490
0.267772 0.217753 0.294127
-0.002749 -0.005958 0.994216
-0.410263 -0.094450 0.126222
0.108845 -0.342590 0.258402
-0.025813 -0.490327 0.065227
0.293551 -0.246503 0.251835
0.165491 0.144582 0.556025
-0.004992 -0.001837 0.983210
0.396249 -0.219522 0.103342
-0.192573 0.126548 0.517255
0.424869 -0.209741 0.073575
-0.171468 -0.404247 0.105877
0.017697 0.040269 0.894183
0.032806 0.049618 0.887469
0.241831 0.390867 0.075741
0.135173 -0.401530 0.132353
0.204595 -0.275560 0.279878
-0.231291 0.401864 0.031359
0.083976 0.315061 0.349964
0.222171 0.027412 0.566586
-0.130078 0.008537 0.702847
0.079745 -0.489423 0.011470
-0.012090 0.008043 0.985303
0.083099 0.132581 0.710228
-0.157190 0.353555 0.208730
-0.019710 -0.063639 0.896592
-0.051343 0.101427 0.762966
0.254474 0.001844 0.475207
0.025439 -0.260590 0.469788
0.127696 0.383786 0.208399
0.177556 -0.072045 0.605637
0.037882 -0.042730 0.896433
-0.075222 -0.026308 0.822624
0.175008 0.293357 0.283249
-0.330966 -0.125807 0.325337
0.082545 -0.071193 0.799131
0.060853 0.376587 0.238452
0.058845 -0.070181 0.814804
-0.250107 -0.083415 0.508743
-0.026324 -0.078081 0.848671
0.385890 0.124730 0.152316
-0.021500 0.052457 0.914243
0.064661 0.216842 0.572738
-0.071906 0.333982 0.336396
-0.210238 0.381940 0.106668
0.234142 -0.002014 0.525991
-0.072474 0.010769 0.853171
-0.061478 0.115011 0.729074
0.313942 -0.086756 0.389375
-0.051581 0.181050 0.593193
-0.361956 0.186798 0.217589
-0.018577 0.089791 0.827634
0.166957 -0.471535 0.004739
-0.156545 -0.144130 0.597016
-0.134467 -0.268757 0.406252
