x y z
-0.125777 -0.455035 0.049049
-0.082949 -0.020462 0.821833
-0.219147 -0.312457 0.280517
-0.000666 0.128607 0.729890
0.379609 0.110347 0.225609
0.057355 -0.014879 0.865191
0.332975 0.156521 0.267015
-0.439308 0.149100 0.056675
-0.361185 -0.243384 0.153248
-0.286657 0.001969 0.421331
-0.148916 0.368485 0.217302
0.371408 0.071539 0.239917
-0.004406 -0.000942 0.974748
0.417718 0.060705 0.117059
-0.163307 0.325739 0.258235
-0.019911 0.012877 0.948006
0.154283 0.092669 0.645637
0.368022 0.262789 0.111781
0.043488 0.281489 0.446028
-0.001859 0.077548 0.849432
0.084340 -0.100312 0.716691
-0.061336 0.271007 0.455157
-0.166606 0.022259 0.661877
-0.068150 -0.117727 0.724537
0.000511 -0.006239 0.983133
0.135149 -0.016245 0.740568
0.121222 -0.051147 0.737781
-0.104548 -0.134416 0.649703
0.457849 -0.049101 0.079282
0.313504 -0.017312 0.343752
0.153625 0.022952 0.680735
-0.103867 -0.062617 0.729804
-0.174619 0.026403 0.624456
-0.236555 0.158587 0.461725
0.071355 0.048054 0.785845
0.065297 0.154929 0.675461
0.040404 0.115921 0.765392
-0.031286 0.236112 0.535634
-0.361325 -0.168677 0.197108
-0.002211 0.014371 0.970191
0.245840 0.009685 0.507859
0.150587 0.081390 0.676228
0.011025 0.209644 0.565534
-0.090266 -0.242149 0.489656
-0.194624 -0.250161 0.348263
0.269829 -0.285170 0.218271
0.040458 0.248368 0.466801
-0.259289 0.027917 0.446369
-0.053648 0.305422 0.390707
0.196287 0.323196 0.251557
-0.077269 0.108407 0.733197
-0.048969 -0.114227 0.745920
-0.017091 0.055405 0.899034
0.064611 -0.488899 0.014794
0.103632 0.353020 0.261171
0.185652 -0.240209 0.391505
0.267702 -0.073874 0.423046
0.295938 0.000458 0.434548
-0.059115 -0.018939 0.856631
0.270065 0.219013 0.298007
0.115364 -0.400187 0.163307
-0.202251 0.234622 0.417392
-0.435699 0.124720 0.060349
0.419566 -0.240748 0.025393
-0.254117 -0.258595 0.282117
-0.008703 0.008866 0.978794
-0.026366 0.140352 0.699636
-0.040205 -0.276784 0.375506
0.378471 -0.084626 0.221867
-0.312077 0.048944 0.383578
-0.240387 0.292400 0.229922
-0.051568 -0.359692 0.266987
-0.170015 0.027948 0.614127
-0.247477 -0.087161 0.473824
0.098907 0.420394 0.152006
0.285480 -0.113074 0.377962
-0.048421 0.474966 0.051980
-0.085710 0.179775 0.615086
-0.076430 -0.249312 0.481175
0.115495 -0.378489 0.215607
-0.099290 0.092552 0.754292
-0.388892 -0.160772 0.158454
-0.320747 -0.235160 0.202750
0.072479 -0.071143 0.796124
-0.014969 -0.077070 0.875980
0.238366 0.143281 0.427359
-0.289574 0.275030 0.259305
0.189020 0.281618 0.315628
0.130424 -0.300747 0.356391
0.107596 0.486464 0.032079
-0.095138 -0.300409 0.339652
0.104283 -0.187162 0.586090
-0.225546 -0.171913 0.463672
0.217181 -0.116118 0.505875
0.141732 0.202446 0.493555
-0.071415 0.053763 0.811742
-0.395132 -0.194660 0.111867
-0.341710 0.000728 0.307309
0.143416 -0.414984 0.141956
0.060624 -0.037660 0.866361
-0.040090 0.043565 0.891692
0.159195 0.198054 0.483991
-0.265219 0.278565 0.189523
-0.000427 -0.139114 0.713683
-0.043863 -0.394260 0.205875
0.090663 -0.268574 0.479776
-0.288214 0.063406 0.392054
-0.461613 -0.167413 0.048227
-0.132686 -0.107932 0.680716
0.207447 0.181468 0.416763
0.000160 0.007711 1.007731
-0.327412 0.040762 0.357865
-0.388040 -0.023296 0.225184
0.033386 -0.088028 0.814332
0.373271 -0.027915 0.245524
-0.253244 0.047777 0.478977
0.295303 0.278036 0.152572
0.411257 0.194228 0.082394
-0.007893 0.005140 0.964070
0.219345 -0.015545 0.578790
-0.037251 -0.123372 0.752899
-0.485541 -0.127135 0.035672
0.405218 -0.249391 0.056329
-0.312864 -0.172770 0.301863
0.146670 -0.035725 0.648091
0.022507 -0.144289 0.722017
0.005075 -0.035754 0.956950
0.230446 0.147688 0.461265
0.268921 0.020960 0.461676
-0.311675 -0.362971 0.073735
0.457061 0.032464 0.106561
-0.191809 -0.406615 0.157334
-0.011299 -0.230179 0.567232
-0.128026 -0.108396 0.680370
-0.281875 -0.407231 0.046939
-0.307129 -0.014441 0.367148
-0.431487 -0.035424 0.147756
-0.267505 0.248594 0.231479
-0.034656 -0.058858 0.904807
0.295277 0.123982 0.334414
-0.338164 0.137654 0.247099
0.224411 -0.330578 0.233115
0.037322 -0.099001 0.835700
-0.123418 0.309905 0.325009
-0.065031 0.173765 0.625329
-0.408975 -0.271996 0.019567
-0.437875 0.118624 0.094935
0.059926 0.151637 0.671002
-0.007159 0.220424 0.579085
-0.189447 0.347402 0.195610
-0.388340 -0.203573 0.183388
-0.019814 0.013309 1.011810
0.031354 0.075321 0.784284
0.087770 0.403948 0.124265
-0.039990 -0.191068 0.637551
0.080225 0.143435 0.669774
0.205740 0.053749 0.542725
-0.392322 0.157357 0.132607
-0.216250 0.385622 0.115538
-0.190751 -0.332084 0.194417
0.360856 -0.134940 0.250955
0.465633 -0.036524 0.091578
0.149873 -0.419305 0.105312
0.056969 0.019144 0.875128
-0.074072 0.265717 0.437556
-0.235126 0.183175 0.401184
0.257442 0.207052 0.332782
0.160717 -0.451982 0.012550
-0.262307 0.055065 0.428659
-0.120018 -0.135134 0.669546
-0.090092 -0.114990 0.726484
-0.344860 0.258148 0.138251
-0.126760 0.022647 0.732469
-0.006858 0.122024 0.751944
-0.029448 -0.299999 0.405805
0.180904 -0.211718 0.428345
0.028801 0.009872 0.946527
-0.000042 -0.003872 0.986040
0.003134 0.107810 0.801440
-0.006116 -0.079623 0.849741
0.275086 -0.134651 0.358910
-0.118625 -0.430565 0.094418
-0.334600 -0.115392 0.279979
0.169762 0.433707 0.049717
-0.028355 -0.039082 0.900896
0.161139 0.305696 0.314317
-0.242300 0.200301 0.381983
-0.098291 -0.053956 0.772262
-0.016040 -0.060270 0.896185
-0.025939 0.163883 0.693947
-0.017471 -0.097995 0.777128
0.044623 -0.039688 0.861162
-0.156942 0.070364 0.678916
-0.090533 -0.133193 0.657418
-0.021865 0.013514 0.986251
0.130111 -0.009504 0.742850
0.025372 -0.210000 0.570312
0.028602 0.001321 0.976983
0.196918 0.184542 0.496081
0.277182 0.218784 0.325427
