x y z
-0.163085 0.370763 0.197866
0.008900 -0.010889 0.966199
-0.201433 0.258851 0.363452
0.027988 0.098110 0.790461
0.139685 -0.075976 0.667991
-0.045891 -0.443419 0.142621
0.255932 0.091115 0.461683
-0.208405 -0.340024 0.164755
-0.014294 -0.025183 0.970699
-0.282821 0.368735 0.071064
0.047787 0.033604 0.906257
-0.014917 -0.006633 0.987081
0.052454 -0.192981 0.621705
-0.026970 -0.023094 0.925384
0.021876 -0.198218 0.622982
0.451861 0.109757 0.061769
0.046209 0.216511 0.556894
0.200258 -0.308296 0.290675
-0.347608 0.027511 0.263005
0.102659 0.125230 0.704789
0.105664 0.383809 0.196061
0.274522 -0.362751 0.091091
-0.130640 0.017682 0.711065
0.041376 -0.255256 0.493145
-0.163821 0.038268 0.642829
-0.012592 -0.035824 0.938669
0.060884 -0.010303 0.907513
0.396772 -0.100726 0.206673
-0.002024 -0.008075 1.010716
-0.035099 -0.004063 0.914822
-0.073585 -0.160302 0.650307
0.289936 -0.027826 0.424996
0.062252 -0.082171 0.817520
0.016976 -0.437292 0.135504
-0.027008 -0.061477 0.948735
0.147992 -0.152788 0.609252
0.045135 -0.048331 0.883450
-0.092331 -0.046925 0.818761
0.259353 -0.118474 0.470621
0.267703 0.089417 0.451721
0.062051 0.007949 0.913330
-0.161491 0.331084 0.281692
-0.335484 -0.223794 0.213038
0.079917 0.274633 0.437148
-0.435682 -0.135575 0.094307
-0.112493 0.130089 0.642101
-0.139471 -0.125768 0.636674
-0.026467 0.021710 0.959453
0.093114 0.184792 0.633438
-0.008474 0.374584 0.242336
-0.231393 -0.213489 0.363666
0.060210 -0.118849 0.754382
0.215364 -0.312327 0.210821
-0.108917 0.012604 0.790899
-0.229837 -0.022863 0.537850
0.011421 -0.371879 0.262421
0.134552 -0.234710 0.404551
0.135142 -0.219983 0.477741
0.166456 0.224782 0.457187
0.011679 0.083145 0.828843
-0.296096 -0.355138 0.075183
-0.257208 -0.167354 0.384280
-0.200615 0.221114 0.407124
-0.144176 0.159143 0.555984
0.221214 -0.197242 0.419223
-0.104268 0.276022 0.387373
0.046704 0.078505 0.824872
-0.136146 0.424523 0.146254
0.127511 0.338196 0.297111
0.436020 -0.061617 0.115217
-0.039347 0.052820 0.910526
0.033049 0.017593 0.901385
-0.004639 0.021359 0.980115
0.022085 -0.071414 0.815134
0.196968 0.289457 0.316270
-0.191845 0.282063 0.276222
-0.157169 -0.421675 0.078868
-0.093483 0.210242 0.563349
-0.108958 0.066346 0.729096
0.031302 -0.028702 0.914130
0.028663 0.220701 0.558607
-0.077905 0.005857 0.831626
-0.372004 -0.220199 0.108204
0.019578 -0.062533 0.885211
-0.124379 0.106028 0.676711
0.029100 0.136712 0.721413
-0.149921 0.073627 0.669472
0.086255 0.238639 0.494581
0.254805 0.346287 0.153895
-0.035266 -0.045634 0.877385
-0.022708 0.195147 0.614398
-0.000262 -0.133107 0.727439
0.076727 -0.066123 0.805163
0.053152 0.029948 0.879267
-0.127609 0.051098 0.745996
0.307944 0.080024 0.378654
-0.095885 0.207130 0.559289
-0.137473 0.011395 0.756067
0.375211 -0.011299 0.245424
-0.020284 -0.048619 0.897226
-0.194848 -0.061065 0.545585
0.055682 0.035902 0.866574
-0.137668 -0.049109 0.723393
-0.150151 -0.077910 0.683117
-0.012268 0.007073 0.990231
0.033906 -0.100608 0.808669
-0.178625 0.416089 0.078927
0.083222 -0.000837 0.827549
0.209428 0.048469 0.594584
-0.206018 0.344704 0.185644
0.355189 -0.042303 0.250994
0.003236 -0.328415 0.350120
-0.414340 -0.000756 0.199153
-0.020422 0.001788 0.934125
-0.021339 -0.041108 0.896509
0.147313 -0.126062 0.611626
-0.389032 0.134574 0.179640
0.016614 -0.013218 0.966394
-0.015387 0.167880 0.641446
-0.150903 0.429056 0.074768
0.019026 -0.127156 0.790101
-0.002293 -0.003461 0.999579
0.142793 -0.233826 0.482639
-0.207386 -0.143948 0.462604
0.195931 0.426835 0.094793
0.072996 0.396171 0.147617
-0.279242 0.013632 0.418693
-0.173207 -0.286210 0.308922
0.017410 0.067700 0.888171
-0.076687 0.275744 0.397803
0.065872 0.031129 0.900627
0.205478 -0.031774 0.545197
-0.013792 -0.457467 0.051060
0.340859 0.182678 0.200715
0.052649 -0.057806 0.896305
-0.046899 -0.121654 0.729226
0.071897 -0.070855 0.803575
0.075682 -0.208869 0.568143
-0.041969 0.063039 0.862343
-0.105818 -0.034858 0.776404
-0.134323 -0.227245 0.471095
-0.058380 0.013573 0.908893
0.117526 -0.393068 0.177026
0.320256 -0.112183 0.343858
-0.192332 -0.360254 0.217211
0.347019 0.226714 0.166225
-0.153161 -0.012084 0.700991
-0.209984 -0.259975 0.300815
-0.212694 0.344253 0.178862
-0.266565 0.135657 0.401963
0.011334 0.003659 0.987693
-0.004424 -0.292172 0.431704
-0.311882 0.024628 0.356144
0.066711 -0.446721 0.132436
0.113377 -0.301324 0.350834
0.014289 -0.021725 0.972756
-0.112619 0.222430 0.512449
-0.357744 -0.080806 0.277464
-0.231777 -0.328956 0.213182
-0.004750 -0.035748 0.967400
0.002424 0.087861 0.802052
-0.130729 0.139767 0.642295
-0.325560 0.284057 0.103710
-0.231394 -0.213795 0.368498
0.198556 -0.013917 0.577373
0.001649 0.256287 0.472823
0.160181 -0.112793 0.606200
-0.016462 -0.106355 0.798823
-0.005942 0.009741 0.968755
-0.185284 -0.347037 0.206559
-0.164996 0.068009 0.598502
0.120993 0.193484 0.546154
-0.129732 -0.247938 0.439529
-0.269396 -0.000140 0.478592
0.302509 0.209684 0.233628
0.075889 0.195490 0.600390
0.096948 0.200082 0.548093
0.300561 0.241317 0.220378
0.054274 -0.327028 0.326321
0.031935 -0.100076 0.779716
-0.435322 -0.031178 0.109388
0.013250 0.003017 0.985575
-0.031727 -0.122582 0.734448
0.138574 -0.300805 0.313293
-0.167396 0.054958 0.683628
0.091994 -0.059767 0.755002
0.074516 0.335121 0.352983
0.290643 -0.135200 0.355834
0.175520 -0.176436 0.491684
-0.075046 0.014763 0.826381
-0.138488 -0.120282 0.619501
-0.292961 -0.115166 0.385856
-0.177143 0.165971 0.484667
-0.010757 0.022987 0.949291
-0.026261 0.009322 0.947682
-0.075191 -0.159922 0.665671
0.169507 -0.220039 0.422133
-0.003553 -0.012761 0.954656
0.031940 0.325080 0.353239
-0.347252 -0.206721 0.199165
