x y z
0.002097 -0.004571 0.989941
0.038802 -0.113990 0.759175
0.051812 0.111205 0.754635
-0.001441 -0.001482 0.995866
0.375388 -0.235385 0.113835
-0.093735 -0.005896 0.812159
-0.352512 -0.174008 0.213760
-0.080032 0.322359 0.335708
-0.385460 -0.140448 0.179501
0.452960 -0.013753 0.093663
-0.102869 0.313929 0.339293
-0.404332 -0.045270 0.186284
-0.038867 -0.242084 0.509632
-0.037761 0.050197 0.874372
-0.034754 -0.000594 0.930482
0.002136 -0.000139 0.995719
-0.171861 0.148994 0.545092
-0.157599 -0.355616 0.222054
-0.102917 0.168175 0.605667
0.173059 -0.096997 0.603224
0.228024 -0.050336 0.532973
0.068070 0.031317 0.850143
0.034592 0.082783 0.820560
-0.027383 -0.059470 0.869057
-0.016694 0.110453 0.776586
-0.021788 -0.021245 0.939136
-0.049273 0.248685 0.492961
0.024992 -0.033177 0.916926
-0.003964 -0.023634 0.952071
-0.211048 -0.054286 0.564164
-0.305536 -0.314630 0.122859
-0.038859 -0.418154 0.160088
-0.070071 -0.148938 0.670804
0.074806 -0.287565 0.405729
-0.347887 0.074672 0.288379
-0.119711 -0.287496 0.377152
0.243975 0.062724 0.496182
-0.225963 -0.043897 0.539625
-0.068095 -0.087003 0.779034
0.302286 0.016423 0.394536
0.322378 -0.280766 0.144998
-0.217130 -0.387876 0.110971
0.309403 0.264207 0.186278
-0.056497 -0.024604 0.876757
0.343839 -0.043968 0.306722
0.180048 -0.102780 0.585363
0.105464 0.084015 0.730325
0.283892 0.103836 0.395428
-0.423780 -0.128328 0.114432
-0.117954 0.053130 0.741266
-0.204411 -0.008489 0.590825
-0.274526 0.260290 0.243388
-0.153759 -0.206082 0.485757
0.158910 0.352561 0.226562
0.217365 -0.396552 0.095564
0.108855 -0.127092 0.665326
-0.333574 -0.300252 0.102397
0.350882 -0.117843 0.259716
0.383458 -0.168485 0.162319
-0.013845 0.198405 0.602226
0.477153 -0.103532 0.023489
0.146985 -0.045160 0.692468
0.274840 0.020192 0.448839
-0.114831 0.202266 0.534823
0.057023 -0.294211 0.400628
-0.273182 0.174401 0.351790
-0.006058 -0.020365 0.957506
-0.257752 0.112166 0.437800
0.197079 0.085296 0.570509
-0.223639 0.203347 0.395470
-0.418224 -0.252920 0.022494
0.017063 0.089716 0.817352
-0.332603 0.006865 0.334652
0.161617 0.229159 0.439164
0.177095 0.174009 0.503446
-0.083657 0.099207 0.740459
0.019309 -0.325469 0.347918
0.408587 -0.155913 0.125352
0.195159 -0.118031 0.543849
0.324090 0.095613 0.324201
0.099893 0.220409 0.516022
0.230988 0.407892 0.062490
-0.175891 -0.449581 0.034473
0.263603 0.341686 0.136900
-0.104126 -0.044105 0.773836
-0.220717 -0.325584 0.213309
0.098567 -0.056799 0.772478
0.014928 -0.444912 0.109675
-0.036696 0.428375 0.140112
-0.024941 -0.413564 0.171369
-0.017009 -0.035383 0.921482
-0.081861 -0.276159 0.423927
0.048300 -0.227530 0.534800
-0.057079 0.396858 0.198117
-0.130171 0.076048 0.698486
0.085612 0.065912 0.783909
0.140112 0.104435 0.650497
-0.046201 -0.017743 0.901019
0.151034 -0.299864 0.328494
-0.272644 0.282207 0.215206
0.135829 0.244344 0.440882
0.250022 -0.383093 0.085077
-0.122978 0.428518 0.108369
-0.112070 -0.301044 0.357545
-0.008281 0.004367 0.981275
-0.222842 -0.120282 0.493537
-0.045847 0.180507 0.627523
0.191164 -0.153186 0.510063
-0.099580 0.132569 0.668393
0.002587 -0.003221 0.991737
0.032019 0.031843 0.909684
-0.190997 0.191014 0.459756
-0.292007 0.151626 0.341947
0.121519 -0.004275 0.756812
0.423683 -0.098638 0.129973
0.091067 0.022249 0.812510
0.305346 0.106360 0.353319
0.016438 -0.379429 0.240431
-0.224320 -0.412064 0.061669
0.306263 0.342161 0.081587
-0.184801 -0.009146 0.629947
-0.429555 0.042803 0.136636
0.070991 -0.010437 0.856492
-0.121258 0.097662 0.688606
-0.325258 0.379115 0.000959
-0.045208 -0.054004 0.859142
0.432149 0.020261 0.134752
0.384584 -0.244614 0.088428
0.105658 0.002457 0.788627
0.264421 0.009619 0.470808
-0.215947 -0.384188 0.118562
0.035652 -0.069384 0.843986
0.254747 0.190365 0.363965
-0.121585 0.012924 0.755461
-0.097427 0.075913 0.752979
-0.431194 0.017769 0.136880
-0.030409 -0.005772 0.938096
-0.086455 -0.419129 0.144095
-0.286810 0.285735 0.190297
-0.449848 -0.170957 0.037525
0.378019 -0.249861 0.093735
-0.306039 -0.198527 0.270417
0.301377 -0.263778 0.198983
-0.389839 -0.049172 0.214144
0.180977 -0.054478 0.622002
0.182734 -0.116589 0.566480
-0.016140 0.342248 0.314742
-0.241329 0.135949 0.446027
0.124350 0.207809 0.515655
0.039768 -0.027762 0.903001
-0.021207 -0.053510 0.884882
0.435934 -0.005910 0.128051
-0.255371 0.064410 0.473262
-0.488601 -0.063678 0.014534
-0.135957 -0.125308 0.630208
0.098310 -0.301952 0.364894
-0.106352 0.007924 0.786706
0.139202 0.426465 0.102784
0.293833 0.049426 0.404077
-0.109478 0.248580 0.456760
-0.017571 0.316983 0.365061
-0.216112 -0.114896 0.510488
0.038857 -0.161788 0.667222
0.006218 0.011341 0.974132
0.062318 0.301108 0.385022
0.315159 -0.196667 0.257024
0.088738 0.294820 0.384230
0.011022 -0.000624 0.977922
-0.026207 -0.074581 0.841896
-0.022581 -0.149966 0.696688
-0.103367 -0.291092 0.382199
-0.405617 0.072139 0.176035
-0.081929 0.293606 0.390355
0.269535 0.265940 0.242706
0.269342 -0.076146 0.440202
-0.001732 0.009371 0.980940
0.142076 0.000643 0.715846
0.158147 -0.046659 0.670227
0.057862 -0.013367 0.881229
0.139830 0.005204 0.720146
0.001660 -0.034107 0.931705
-0.132041 -0.215351 0.494784
0.348096 0.261445 0.129311
0.040235 -0.119502 0.747814
-0.163464 -0.160904 0.541259
0.134920 0.372804 0.207066
-0.265382 -0.393509 0.050733
0.430896 -0.151052 0.086790
0.055651 -0.094512 0.780640
-0.082486 0.149100 0.659208
0.395389 0.248647 0.065852
-0.333295 0.151540 0.267743
0.084159 0.330544 0.317822
0.113921 -0.135910 0.645319
-0.038548 0.176230 0.639206
0.023174 -0.001638 0.953537
0.122176 -0.407642 0.148886
0.111357 0.372172 0.223051
0.343620 -0.278461 0.115432
-0.021251 0.011496 0.951677
