x y z
-0.302140 -0.024330 0.393764
-0.213754 0.182581 0.437766
0.168927 -0.178885 0.507918
0.162577 0.050879 0.659296
-0.310155 -0.178551 0.284244
0.000096 0.245778 0.508444
-0.165784 0.050516 0.653381
-0.278547 -0.081557 0.419518
0.126017 -0.185027 0.552272
0.315406 -0.321475 0.099274
0.040597 -0.025948 0.903638
0.317832 0.206002 0.242493
0.027447 0.439598 0.119091
-0.324926 -0.222722 0.212136
0.036510 -0.048712 0.878248
0.043439 -0.158309 0.671678
0.161253 0.108924 0.610812
0.301151 0.182573 0.295656
-0.018421 0.097589 0.801376
-0.163254 -0.361644 0.206431
-0.007684 0.003738 0.982910
-0.344365 -0.225060 0.177226
-0.059548 0.007783 0.879891
-0.421728 -0.030076 0.154401
0.456752 -0.070897 0.075557
-0.081489 0.037585 0.820522
-0.127192 -0.271929 0.399589
-0.078443 0.225190 0.523077
-0.126536 0.128934 0.638695
0.029797 0.307315 0.382488
-0.223118 0.248631 0.331871
-0.239305 0.194337 0.383449
0.193656 -0.057081 0.596213
-0.283969 -0.096938 0.399882
0.060242 0.132478 0.708936
0.282814 -0.091451 0.405536
-0.163615 0.053579 0.655672
-0.302263 0.150299 0.324863
-0.040166 0.017415 0.912442
-0.076068 0.174393 0.619478
0.225634 -0.010181 0.548274
-0.096160 -0.019721 0.803677
-0.213407 -0.304490 0.256342
-0.406536 -0.285889 0.006010
0.204149 -0.081439 0.560413
0.058042 -0.052381 0.843633
0.401948 -0.292999 0.005192
0.166315 0.231412 0.430044
0.000002 0.000176 0.999648
0.108055 0.142110 0.642950
-0.136934 0.046086 0.711037
-0.005429 -0.003388 0.987201
0.230657 -0.118215 0.481629
-0.103712 0.176143 0.591184
0.110081 0.112653 0.684986
0.130850 0.128527 0.633171
-0.123007 0.351899 0.254444
-0.040797 0.010060 0.915963
-0.009482 -0.179714 0.640073
-0.113791 -0.081686 0.719850
-0.142984 0.139608 0.600325
0.054658 -0.178959 0.625761
0.356721 -0.189746 0.191907
0.386992 -0.310641 0.007506
0.127646 0.340421 0.272870
-0.104191 0.210074 0.531015
0.048121 -0.047811 0.864331
-0.093075 -0.244008 0.477686
0.134801 0.198503 0.520104
-0.097710 0.309588 0.350718
0.071702 0.060664 0.812157
-0.423729 -0.047759 0.147176
-0.022172 -0.302193 0.393990
-0.300538 -0.286732 0.169246
0.019219 0.007876 0.958459
0.153268 0.293581 0.337639
-0.010478 -0.036991 0.923107
-0.006712 0.001937 0.986029
0.218899 -0.089702 0.526868
0.158174 0.014039 0.682408
-0.309981 -0.189939 0.272909
-0.070195 0.102584 0.751398
-0.170417 -0.134345 0.565993
0.165385 0.090119 0.623312
0.304202 0.245927 0.217647
0.241590 0.217525 0.349822
0.120839 0.318562 0.318578
0.297926 0.027281 0.401655
0.427346 0.067619 0.134676
-0.210787 0.029166 0.574409
-0.026930 0.085359 0.820988
-0.054346 -0.081997 0.803257
0.101840 0.065986 0.757302
0.027221 -0.085635 0.820286
0.161108 0.109560 0.610336
-0.333329 -0.359141 0.020020
-0.063901 0.112159 0.741829
0.027739 -0.021090 0.930308
0.014114 0.080086 0.837360
0.252644 0.026323 0.491977
-0.060091 0.190816 0.599891
0.178065 -0.051799 0.629107
0.170147 -0.268317 0.364567
-0.002997 0.010989 0.977219
-0.006830 -0.081619 0.836192
0.134994 0.082762 0.683311
0.294357 0.212075 0.274405
-0.269939 -0.118791 0.410158
0.080437 -0.033116 0.826027
0.019524 0.058512 0.876633
-0.101221 -0.018597 0.794170
0.162541 0.152319 0.554486
-0.228340 -0.407449 0.065860
0.167129 0.282439 0.343635
0.281981 -0.009644 0.435709
-0.069393 -0.277783 0.427362
-0.166012 -0.228889 0.434491
-0.074207 -0.071417 0.794019
0.174589 0.005218 0.650665
0.034030 0.260723 0.474131
-0.333402 -0.367852 0.007081
0.008022 -0.009969 0.974408
-0.063430 -0.236624 0.510043
-0.243765 -0.150344 0.427201
-0.248641 -0.059337 0.488753
0.044977 -0.084648 0.808290
0.083907 0.055330 0.798985
0.063404 -0.022594 0.865381
0.077195 -0.093243 0.757897
-0.376456 0.161510 0.180721
-0.128677 -0.005553 0.742407
0.057126 -0.228437 0.529056
-0.109876 0.104522 0.696701
-0.181790 0.133962 0.548366
0.001387 0.038060 0.923830
-0.144687 0.355235 0.232858
0.054607 0.101557 0.769386
0.009744 -0.153866 0.691652
0.275378 -0.124291 0.395743
0.331321 0.009290 0.337099
-0.115361 -0.145670 0.628367
-0.109840 0.120134 0.674441
0.367810 0.099738 0.237813
0.174413 -0.025743 0.647394
-0.240585 -0.273144 0.272020
-0.437088 0.206350 0.033302
-0.307549 0.083655 0.362553
-0.052675 -0.069452 0.825665
0.294006 0.305346 0.152236
0.141380 -0.003279 0.717164
0.220285 -0.018046 0.557953
-0.442862 0.165271 0.054609
0.104905 0.019946 0.786432
-0.068040 -0.399465 0.189563
0.064439 -0.483318 0.024811
-0.225741 0.176854 0.426463
-0.352970 -0.184761 0.203196
-0.289587 0.176770 0.321448
-0.256797 0.059221 0.472926
-0.239838 0.061552 0.504778
0.039929 0.020703 0.910045
-0.411443 -0.234583 0.052764
0.121789 -0.381548 0.198973
-0.344865 -0.068033 0.296977
0.055858 0.382775 0.226341
0.187138 -0.077956 0.594549
-0.114369 -0.088734 0.710490
0.043097 -0.023559 0.901767
-0.016869 0.070496 0.855029
0.372439 0.112027 0.222155
-0.169336 -0.029314 0.656290
-0.395423 0.101140 0.183695
-0.041440 0.047204 0.874374
0.005643 -0.273968 0.451948
0.235437 0.211840 0.366575
0.363050 0.334431 0.012783
0.120418 -0.458282 0.052324
-0.030513 -0.001873 0.938860
0.309960 -0.070354 0.364311
0.020279 0.006399 0.957471
-0.104385 0.482899 0.011896
-0.151399 0.433544 0.081562
-0.309730 0.126678 0.330733
0.227621 -0.059124 0.529652
0.171593 0.315835 0.281124
0.145175 -0.039324 0.699188
-0.408750 -0.201077 0.088938
-0.085826 0.076585 0.769945
-0.024535 0.004214 0.950212
0.054270 -0.172154 0.638989
-0.243841 0.040877 0.505514
-0.459081 -0.030514 0.079812
0.333362 -0.111959 0.296678
0.155416 0.419935 0.104457
-0.197708 -0.059491 0.587071
0.179223 -0.346767 0.219313
0.004387 0.009968 0.978218
-0.037477 0.019563 0.915448
-0.001428 -0.002851 0.993622
-0.020751 0.071702 0.850711
