x y z
-0.003169 -0.431897 0.140260
-0.001444 -0.006097 0.933981
-0.169728 -0.255131 0.400986
0.093257 0.488490 -0.003888
-0.031801 -0.041048 0.899509
-0.013108 -0.072171 0.882028
0.354312 -0.067875 0.272550
0.117514 0.082533 0.686242
-0.260011 -0.295187 0.239676
-0.412137 -0.210808 0.044290
-0.276847 0.238774 0.275470
-0.244859 0.049724 0.524946
-0.012623 -0.504750 0.012091
0.165919 -0.009081 0.687399
-0.075682 0.149432 0.706855
-0.144746 -0.254297 0.393992
0.303038 0.392121 0.021700
-0.173832 -0.400396 0.157381
0.056407 0.005975 0.871654
0.266726 -0.104405 0.396543
-0.347737 0.131979 0.300625
0.448765 0.231270 0.002115
-0.104462 0.353910 0.242554
0.005845 -0.000311 0.943649
0.014462 0.196061 0.580759
-0.159364 -0.125354 0.581235
-0.265684 -0.179137 0.372991
0.147707 -0.118307 0.630795
0.005337 -0.006723 0.996202
0.067226 -0.305400 0.384890
-0.088803 -0.159219 0.615742
0.268873 0.031205 0.448844
0.314592 -0.201451 0.285690
-0.333747 0.162106 0.253595
-0.425448 0.110677 0.128551
0.309792 -0.242396 0.199556
-0.245574 -0.028043 0.486804
-0.154367 0.238968 0.372783
-0.092450 -0.016978 0.798040
0.143772 0.008788 0.733890
-0.074574 0.209776 0.548554
0.020078 -0.372442 0.233355
-0.018778 0.000420 0.980702
-0.178185 0.203710 0.482441
0.347028 0.089727 0.270223
0.492526 0.108230 0.025040
0.091041 0.205518 0.553807
-0.140263 0.032294 0.706037
-0.144747 0.296376 0.358190
0.355763 0.221740 0.175162
0.285486 -0.289056 0.160947
-0.330763 -0.076924 0.331739
0.075014 0.109433 0.738996
-0.135846 0.204053 0.482305
0.120099 -0.394367 0.144921
-0.016801 -0.036310 0.916814
-0.250017 -0.069437 0.464266
0.060480 -0.012781 0.863001
-0.278672 -0.282619 0.222161
-0.357755 0.086036 0.291961
-0.012058 0.040219 0.882660
0.160453 0.160439 0.541210
-0.033295 0.004689 0.942234
-0.067962 -0.048168 0.822223
-0.076959 0.023780 0.867106
-0.097713 -0.110537 0.739838
0.017498 -0.006004 0.957645
-0.111399 0.078548 0.725557
0.332993 0.027493 0.325116
-0.328082 -0.128314 0.265667
0.017741 0.101330 0.800459
-0.428025 -0.176228 0.066063
0.121333 0.252128 0.425974
-0.001009 -0.049710 0.929237
0.049835 -0.143069 0.744865
0.366731 -0.294267 0.026308
0.023792 0.215218 0.581380
0.074576 -0.069100 0.781682
-0.484565 0.089191 -0.002370
0.135968 0.295416 0.354128
0.176625 -0.279393 0.327304
-0.034236 -0.126576 0.772812
-0.076310 0.138777 0.677288
-0.042452 0.255211 0.475877
0.351226 0.042993 0.286945
-0.012413 0.047244 0.910487
0.038691 0.193967 0.623358
0.166436 0.153639 0.545110
-0.065695 0.032466 0.875896
0.028091 0.017757 0.921443
-0.095243 -0.079839 0.732047
0.231784 0.073511 0.505739
-0.419623 0.072802 0.133443
0.094492 0.048182 0.805136
-0.075986 0.048329 0.805458
-0.114644 0.045654 0.780506
0.042501 -0.458492 0.073587
-0.259508 -0.161419 0.354991
0.076522 0.321713 0.326540
0.083150 0.093298 0.748339
0.380966 0.142994 0.168461
-0.369898 -0.043819 0.280267
-0.227138 0.054409 0.539723
-0.058495 0.509934 0.014163
-0.145742 -0.025566 0.685558
0.181694 -0.380530 0.129484
-0.056098 -0.159186 0.704588
0.029603 -0.070702 0.824189
-0.099319 0.087168 0.759536
-0.369262 -0.194527 0.168158
0.080897 0.187001 0.601295
0.123266 -0.079358 0.693570
0.199268 0.223560 0.364850
-0.317461 0.007152 0.365722
0.117936 0.142461 0.613399
0.222060 -0.146033 0.458217
-0.178128 0.229323 0.404954
0.469570 0.079629 0.086954
0.282781 -0.329098 0.159783
-0.188523 0.089151 0.610218
0.091777 0.268656 0.446433
0.009165 -0.306927 0.412437
-0.285101 0.007079 0.434726
-0.397755 0.140002 0.139324
0.360881 -0.166387 0.200776
0.237121 -0.177329 0.422561
-0.211789 0.013962 0.585708
0.242853 -0.109664 0.453951
0.242651 0.077881 0.473794
-0.024871 -0.045171 0.932618
0.100972 -0.044243 0.812702
0.091266 -0.178147 0.627288
0.391284 -0.259457 0.088199
0.052318 0.024389 0.902713
-0.233995 -0.188552 0.409507
-0.097255 0.385223 0.204885
-0.056349 -0.418649 0.164008
-0.007976 0.051515 0.933375
-0.155529 0.354995 0.235568
0.003075 0.016665 0.948940
0.020514 -0.393309 0.210933
-0.074133 0.278294 0.428493
0.325648 -0.033055 0.345416
0.370051 0.064548 0.234373
0.044659 -0.191155 0.589652
0.271361 -0.275820 0.228285
0.021631 0.253194 0.522992
-0.078859 0.047955 0.816688
0.092435 0.438541 0.127405
0.195555 -0.432679 0.051592
-0.258653 0.101626 0.467347
0.083671 -0.085259 0.749338
0.057567 0.125685 0.719468
0.156131 -0.319147 0.283285
-0.140652 0.401114 0.147658
0.146124 0.083065 0.647348
-0.005688 -0.076468 0.862617
-0.017463 -0.451363 0.089986
-0.193609 -0.122687 0.546807
-0.079427 0.001257 0.804702
0.355806 0.097145 0.274500
-0.294535 0.126889 0.348623
-0.107677 -0.361046 0.238889
0.041821 0.009057 0.893715
0.048066 -0.458392 0.044021
-0.102167 0.009557 0.775211
-0.078581 -0.132438 0.720967
-0.167641 -0.032407 0.684411
-0.004811 -0.034149 0.941474
-0.087097 0.114024 0.639784
0.074719 0.031982 0.831739
-0.014278 -0.158916 0.676212
-0.252486 -0.390914 0.068690
-0.171251 0.246624 0.390185
-0.002664 -0.037678 0.918007
-0.007272 -0.383861 0.234293
-0.067897 0.135140 0.706423
-0.072370 0.320188 0.367988
0.191046 -0.010360 0.630434
0.193107 -0.077342 0.590195
0.045998 0.030485 0.846555
0.016670 -0.113731 0.786248
-0.061109 0.114757 0.760822
0.036346 0.079183 0.863447
-0.453865 0.073341 0.114871
0.195266 0.160074 0.483487
0.073834 -0.017202 0.830828
0.178040 0.142765 0.515419
0.064457 0.033317 0.857516
0.434127 -0.135928 0.056930
-0.189232 -0.308463 0.282211
-0.114197 0.127378 0.670360
0.107208 0.134016 0.681970
-0.449537 0.169176 0.017707
0.040964 -0.217853 0.607433
0.065650 0.391258 0.195574
-0.107804 -0.226611 0.487486
-0.021796 0.385813 0.210952
-0.260464 -0.301577 0.212676
-0.079118 0.299273 0.375851
