x y z
0.398033 -0.205100 0.078108
0.379937 0.099882 0.288776
-0.299874 0.065827 0.390034
0.175414 0.176881 0.502110
0.122417 -0.270749 0.413674
-0.108139 -0.077073 0.718411
0.266042 -0.218574 0.297986
0.207043 -0.179872 0.465399
0.402121 -0.250682 0.025656
-0.191963 -0.244567 0.354231
-0.472640 -0.114642 0.026002
0.018678 -0.020162 0.990850
0.405371 0.021517 0.210426
0.334552 0.012674 0.318847
-0.270914 0.037888 0.458868
-0.131708 -0.405655 0.176826
0.175748 -0.353507 0.194780
-0.322186 -0.377483 -0.000718
-0.119580 0.005217 0.721480
0.244508 0.155217 0.421030
-0.037033 -0.481605 0.010262
0.071453 0.056634 0.809114
-0.023178 0.201905 0.601121
0.056682 -0.058215 0.816103
-0.013876 0.040082 0.930774
0.001284 0.039217 0.908499
-0.024710 -0.173046 0.683034
0.272614 -0.110510 0.444266
-0.315377 -0.233909 0.192398
-0.077731 -0.399330 0.144219
-0.217945 0.188108 0.429213
0.099872 0.176691 0.562667
-0.311608 0.128256 0.344248
0.048435 -0.395170 0.225587
0.209822 -0.172923 0.467697
-0.096073 -0.385898 0.212264
0.003948 -0.035905 0.918518
0.081096 0.082308 0.732230
-0.033816 0.078294 0.824771
0.151281 0.342718 0.214508
-0.258831 0.066465 0.465091
0.155689 0.122496 0.636465
-0.254557 0.293843 0.201820
0.008435 -0.076489 0.855001
-0.324526 0.035085 0.343766
0.313330 0.290419 0.178889
-0.274816 -0.063668 0.436137
-0.006026 -0.002551 0.969521
0.208055 -0.206571 0.421123
-0.220735 -0.259964 0.306944
-0.223026 -0.044128 0.539723
-0.012310 0.138544 0.718448
-0.163532 -0.265059 0.379688
0.148386 -0.228383 0.487289
-0.298357 0.123923 0.344199
-0.018879 0.007629 0.994231
0.030987 0.145308 0.685863
-0.018066 0.084688 0.832335
0.100285 -0.072586 0.727050
0.012983 -0.097963 0.799486
0.185803 0.433895 0.043864
-0.075621 0.096447 0.754696
0.006028 -0.067017 0.848493
0.022743 -0.383030 0.215221
0.013480 0.010799 0.982387
-0.444045 0.124097 0.097337
-0.046260 0.172414 0.657421
0.047946 0.375554 0.243018
0.216391 0.140251 0.473275
-0.022895 0.067285 0.849255
-0.164197 -0.241274 0.385731
-0.062873 0.002184 0.862182
-0.196322 0.444475 0.031017
-0.373325 -0.295651 0.075896
0.104434 -0.109856 0.701988
-0.293364 -0.269973 0.189928
-0.006384 0.208311 0.613127
-0.184324 -0.106261 0.564070
0.052929 0.008937 0.873772
0.204571 -0.253323 0.336002
0.003381 0.039829 0.893482
-0.030258 0.485564 0.009274
-0.047231 -0.151024 0.686976
-0.108904 -0.027971 0.757470
0.134261 0.261030 0.421730
0.211801 0.126678 0.477039
-0.283971 -0.111846 0.406602
-0.215038 0.368094 0.189497
0.053894 -0.212356 0.544890
-0.360878 0.107718 0.245275
0.022357 -0.022360 0.965195
0.079158 0.220925 0.538665
0.200188 0.051241 0.587689
0.334837 0.011401 0.368976
0.190501 -0.274144 0.340488
0.005185 0.026258 0.915500
-0.259582 -0.123857 0.437620
0.195488 -0.056696 0.629483
-0.052689 0.043139 0.904007
-0.251156 0.129286 0.439543
-0.148135 0.000034 0.722661
0.024759 -0.171937 0.669896
-0.059842 -0.219409 0.535337
0.203673 0.231945 0.402628
0.212480 0.358201 0.162265
-0.278493 -0.192155 0.325130
-0.321715 -0.033576 0.360298
-0.065906 0.031701 0.869286
-0.151727 0.026981 0.701584
-0.063442 0.007527 0.871425
-0.223541 0.279545 0.253657
-0.020657 -0.002901 0.913252
-0.146617 -0.263252 0.397744
-0.004527 0.011574 0.949226
-0.000480 0.010976 0.949358
0.057556 -0.158613 0.653410
0.440999 -0.199459 0.007466
-0.152381 0.157725 0.545584
-0.079939 0.065202 0.790350
-0.099528 -0.229133 0.500306
-0.011712 0.012767 0.977846
-0.097902 -0.008143 0.800949
0.038702 -0.092778 0.812915
-0.209044 -0.252537 0.341657
-0.295224 0.337835 0.104840
0.019468 0.192528 0.620535
-0.047586 0.469642 0.043499
0.033489 0.009735 0.946090
0.153886 0.302335 0.368056
0.058900 -0.237223 0.541535
0.107758 -0.205661 0.512781
-0.317531 0.021622 0.356650
0.404940 0.117144 0.145159
-0.031686 -0.276215 0.450227
0.456627 0.122102 0.035681
0.223937 -0.395959 0.036990
0.118323 -0.048974 0.728583
0.283296 0.079351 0.429711
0.227808 -0.027826 0.546645
-0.347436 -0.197111 0.184613
-0.304899 -0.043984 0.389307
-0.008624 0.007295 0.959755
0.015678 -0.058465 0.888794
0.422039 -0.081065 0.112813
-0.361044 0.186704 0.170672
-0.050377 0.239766 0.437398
0.379200 0.092548 0.230010
0.027653 -0.063070 0.858410
-0.031730 0.241697 0.503165
0.101840 -0.158745 0.635820
0.168674 0.018797 0.666465
-0.031982 0.001306 0.940724
0.187013 -0.197176 0.429846
0.069036 -0.062714 0.804504
-0.002468 0.166381 0.700732
0.366530 0.099603 0.242920
0.106048 -0.082305 0.733814
-0.173891 -0.039016 0.631283
-0.064681 0.093950 0.746593
-0.167738 -0.036041 0.645535
-0.022637 0.004200 0.924256
-0.129833 -0.012881 0.718338
-0.230330 0.097855 0.507401
-0.131480 -0.121508 0.624031
0.161285 0.220739 0.443537
-0.107154 -0.418683 0.113676
-0.007699 -0.001194 1.021171
0.098804 -0.077367 0.759866
-0.001680 -0.480287 0.009804
0.020237 0.204902 0.633261
0.321278 -0.322340 0.111505
-0.080579 0.102579 0.760126
0.161729 0.152409 0.586523
-0.000934 0.001275 0.995997
0.025928 0.336556 0.329632
-0.314379 -0.298340 0.143021
-0.223194 0.003650 0.518906
0.174648 -0.254981 0.369982
-0.184211 0.355166 0.191198
-0.393866 0.212767 0.124681
-0.150063 0.018598 0.733583
-0.122423 -0.129000 0.628076
0.066003 -0.412443 0.134735
-0.177329 0.481190 -0.011908
0.333952 -0.016136 0.333170
-0.095374 -0.238204 0.469907
0.144488 -0.030075 0.733259
0.006437 0.045740 0.930679
-0.178955 0.203495 0.459768
-0.167908 -0.434576 0.076133
-0.073366 -0.250516 0.504822
-0.038896 -0.026264 0.907110
0.034169 0.279718 0.392792
0.020289 -0.080929 0.809902
0.367615 0.242667 0.129104
-0.046765 -0.060807 0.841130
0.068049 0.139188 0.696575
-0.008787 -0.141769 0.725893
0.064339 0.017008 0.877247
0.400933 -0.267722 0.065605
