x y z
-0.135338 0.059534 0.736459
0.286696 -0.312143 0.161556
-0.043998 0.286949 0.435010
0.230235 -0.223097 0.376246
-0.022505 0.045558 0.933693
-0.166264 0.071404 0.630857
-0.098485 0.111759 0.744971
0.268218 -0.099609 0.421487
-0.044744 -0.002324 0.937805
-0.071158 -0.126464 0.692406
-0.424549 -0.039675 0.159579
0.082261 -0.254442 0.479853
0.080155 0.131766 0.696047
0.030208 -0.136936 0.696200
-0.193034 0.405444 0.152196
0.264303 -0.090547 0.440284
0.344977 0.249234 0.159813
0.148402 -0.017437 0.698726
-0.007272 -0.007353 0.909655
0.137181 -0.181724 0.523112
0.015587 0.014296 0.960202
0.001572 -0.013796 0.950665
0.202255 -0.310345 0.233527
-0.122459 -0.278338 0.390534
0.000153 -0.162299 0.688749
0.083082 0.024040 0.829283
0.382019 0.037332 0.229264
0.013755 -0.348596 0.307129
0.092428 0.184102 0.576963
-0.326558 -0.207728 0.216764
0.307544 -0.106622 0.331439
-0.039151 0.072127 0.794812
-0.311476 -0.214560 0.254956
-0.398806 0.136364 0.137447
-0.173606 0.024188 0.647462
-0.295058 -0.204111 0.256268
0.041013 -0.357024 0.259144
-0.087540 0.386546 0.251168
-0.135115 -0.253530 0.395862
0.012667 -0.019400 0.957898
0.078883 0.307945 0.364774
-0.077273 -0.009873 0.803103
0.191253 -0.037125 0.623411
-0.226270 -0.222768 0.410518
0.287786 -0.229209 0.264575
-0.369815 -0.228095 0.136566
-0.252527 -0.110118 0.476252
-0.106359 0.229797 0.529939
0.237929 0.128375 0.445938
-0.165521 -0.116079 0.602727
0.413171 -0.021838 0.182282
0.081206 0.251509 0.483467
0.168411 0.478745 -0.022462
0.195426 -0.240315 0.390309
0.284470 -0.034543 0.419525
0.151840 -0.063650 0.683408
-0.204994 -0.052443 0.535078
0.287886 0.074204 0.408367
0.495493 0.022887 -0.000597
-0.117833 -0.046647 0.757408
-0.000547 -0.022787 0.935703
-0.328248 0.192526 0.234008
0.025511 -0.193286 0.638855
-0.076655 0.133880 0.651513
-0.009541 0.082722 0.862670
0.019609 -0.015343 0.952659
-0.444805 -0.097481 0.102388
-0.109005 -0.243477 0.478851
0.115485 0.027616 0.749578
0.244090 0.008363 0.502954
-0.193459 0.051220 0.619675
0.157599 -0.086846 0.651995
0.263069 0.047977 0.474123
0.298648 0.085536 0.404969
0.074247 -0.058384 0.807140
0.356532 -0.027255 0.276466
0.466564 0.010674 0.090066
-0.031334 0.252818 0.502941
-0.115144 -0.406476 0.132722
-0.238666 -0.439831 -0.008361
0.236360 0.196709 0.386367
0.391960 0.006977 0.179224
-0.032167 0.017437 0.927828
-0.126271 0.012154 0.772155
0.127057 -0.391359 0.161140
0.063165 -0.014163 0.882067
-0.006997 0.201300 0.644991
-0.280553 0.271269 0.198273
0.085597 0.056378 0.745343
0.264208 0.042255 0.443015
-0.151944 0.005327 0.702672
0.257205 -0.066024 0.442414
-0.217915 -0.030930 0.585374
-0.318040 0.063785 0.319777
-0.030121 -0.001373 0.941890
-0.150931 -0.104070 0.618936
0.022427 -0.015979 0.960451
-0.381638 0.127191 0.189975
-0.481409 0.154441 0.021483
0.017910 0.445848 0.082750
0.133127 -0.426900 0.105031
0.300989 0.303573 0.190906
0.272164 -0.047432 0.480514
-0.094631 0.470031 0.036426
-0.288338 -0.199966 0.298336
0.266784 -0.402118 0.037963
0.291349 -0.104392 0.382188
-0.139592 0.365320 0.216602
0.111551 -0.191785 0.562238
0.219194 -0.090185 0.523131
-0.048892 -0.241409 0.505158
-0.312568 -0.134872 0.298135
0.057914 -0.075943 0.812878
-0.092880 0.242426 0.506810
0.000924 -0.121908 0.768532
0.161469 -0.027295 0.661912
0.268060 -0.271070 0.218122
0.005681 -0.487564 0.029406
-0.007233 0.009720 0.948088
-0.006012 0.031402 0.951684
-0.142768 0.009013 0.724716
-0.015299 0.068211 0.846020
0.250039 -0.379774 0.104636
0.259049 0.087235 0.441778
0.038454 -0.153668 0.686303
0.156138 -0.376999 0.208333
-0.468333 0.127632 0.016731
0.146526 -0.347906 0.249476
0.001408 -0.134242 0.706422
-0.356168 0.031519 0.308501
-0.363411 -0.321336 0.008069
0.006914 0.021443 0.959108
-0.103342 -0.163692 0.618085
0.070963 0.058359 0.842300
-0.097178 0.253256 0.474815
-0.335187 -0.235390 0.152274
0.365318 0.166170 0.152218
-0.009492 0.112659 0.775443
0.332627 0.040511 0.331969
0.256575 0.015599 0.457303
0.233125 0.420606 0.064082
-0.241636 0.048842 0.482212
0.273442 0.223347 0.302491
-0.225466 0.041514 0.566808
0.011511 -0.271216 0.434362
-0.052143 0.024606 0.897970
0.249464 -0.347546 0.146137
0.010855 0.009536 0.961425
0.135310 0.092292 0.703410
0.173132 -0.238386 0.382879
0.000797 -0.105492 0.797233
0.298391 -0.112757 0.372225
0.017880 0.126066 0.763909
0.079584 0.055875 0.818994
-0.338565 -0.090699 0.335452
0.184041 0.037083 0.640138
-0.047661 -0.194768 0.638629
0.091703 -0.084278 0.761539
-0.118752 0.018627 0.740246
0.209601 -0.288991 0.299131
-0.090714 0.005834 0.799598
-0.026230 0.361743 0.289888
-0.296217 -0.006476 0.429169
0.260587 0.251636 0.251025
0.470801 0.156307 0.031633
0.400185 0.131421 0.161290
-0.315537 -0.380235 0.028805
-0.094538 -0.109548 0.678824
-0.273614 -0.210691 0.328800
-0.027392 -0.033295 0.962676
0.451696 -0.176939 0.033472
-0.307749 -0.161875 0.289225
0.400664 0.037969 0.203014
-0.387698 -0.110175 0.185942
-0.084583 0.118761 0.701608
-0.022566 -0.026369 0.929739
0.005131 0.088034 0.863440
-0.220458 -0.234857 0.370971
-0.136615 0.290140 0.340983
-0.284535 -0.171392 0.355302
0.057255 -0.026117 0.851494
0.030080 -0.238914 0.513102
0.017737 -0.112969 0.787559
0.043044 0.082186 0.783834
0.062925 0.485963 0.039888
-0.125127 -0.311668 0.317919
0.334968 -0.269629 0.152123
-0.070719 0.088697 0.741040
-0.019323 -0.006603 0.957785
0.046474 -0.005076 0.907019
0.246847 0.005520 0.498210
-0.263357 0.163793 0.409076
-0.189737 -0.216375 0.411001
0.163421 -0.089550 0.611771
0.038645 -0.040570 0.893804
-0.198314 0.015347 0.583769
-0.243512 -0.068711 0.508308
0.289624 0.007531 0.417389
0.065879 0.435954 0.123879
0.021962 -0.023801 0.932420
