x y z
0.185244 -0.234844 0.401779
0.082395 -0.291790 0.393599
-0.037669 0.052412 0.870911
-0.425881 0.103182 0.123595
0.290914 0.030928 0.414893
-0.070761 -0.020533 0.852641
0.013276 0.034491 0.926085
-0.164660 -0.218273 0.453168
0.163044 -0.116783 0.598894
-0.079608 0.071618 0.785836
0.234009 0.202027 0.381695
0.155571 0.085031 0.645414
0.002983 -0.000533 0.993940
0.033016 -0.134396 0.723216
-0.079136 0.126787 0.701085
-0.264922 -0.163200 0.377688
0.029942 -0.022055 0.925624
0.153571 -0.247127 0.418086
-0.105177 0.283959 0.394377
-0.232073 -0.000650 0.535852
0.272089 0.254051 0.255489
0.027312 -0.065428 0.858201
-0.005081 0.234364 0.531162
0.026117 -0.001493 0.947681
-0.093916 -0.319818 0.333356
-0.109301 0.199796 0.544521
-0.120319 -0.256297 0.433731
0.316178 0.166229 0.285574
-0.101070 -0.109855 0.701449
-0.232825 -0.072049 0.512563
-0.009932 0.010520 0.971064
0.087538 -0.256544 0.457865
0.174056 -0.316810 0.277050
0.229408 -0.218999 0.365686
-0.195417 0.177592 0.471883
0.046174 0.002757 0.907488
0.013310 0.002964 0.972727
-0.182097 0.047687 0.623525
-0.053071 0.022362 0.884821
0.349379 -0.058184 0.291619
-0.146201 -0.349817 0.241722
0.435499 -0.010024 0.128770
0.078888 -0.220585 0.531466
-0.261928 0.060319 0.462434
-0.448762 0.199690 0.017628
-0.071124 -0.153755 0.661183
-0.119075 -0.389102 0.186172
0.348820 -0.218389 0.176910
0.004084 0.004287 0.988157
0.120136 0.285029 0.381375
0.371223 0.139714 0.206712
0.043258 -0.302552 0.388742
-0.109099 0.417278 0.137391
0.359893 -0.012630 0.279770
0.038013 0.055748 0.865051
0.227690 -0.142153 0.463157
0.415193 0.076048 0.155799
0.138780 -0.244682 0.437401
0.311055 0.127170 0.327906
0.001573 0.001212 0.996028
-0.349588 0.134420 0.250919
0.058406 0.009448 0.881669
0.057529 0.213084 0.558573
0.101923 -0.051646 0.771478
0.308464 -0.269251 0.181107
0.062485 0.053676 0.835252
-0.073077 0.104093 0.745634
-0.167942 0.239829 0.414432
-0.229594 -0.259882 0.306453
0.050974 0.041752 0.868219
0.211668 0.142522 0.489644
-0.061286 -0.155151 0.666367
-0.101297 0.150646 0.636928
0.325782 -0.102985 0.316655
0.126960 -0.199306 0.527383
-0.015555 0.067387 0.861682
0.232977 0.400571 0.073209
0.271563 0.007306 0.456678
-0.128016 0.015545 0.742088
0.139661 0.366141 0.216255
-0.367067 -0.060946 0.255817
0.183748 0.433218 0.058849
-0.161500 0.210337 0.469627
0.255618 -0.407065 0.038662
-0.272989 0.395112 0.039508
-0.343510 -0.319145 0.062231
0.179791 -0.100302 0.588246
-0.016738 -0.014410 0.955828
-0.084640 -0.140734 0.671548
-0.265089 -0.178657 0.360655
0.165329 -0.035528 0.661794
0.018690 0.020208 0.944948
0.008527 -0.295361 0.409032
-0.021631 -0.317338 0.363851
0.098522 -0.013327 0.801162
0.014397 -0.021004 0.949071
-0.026742 0.044704 0.895815
-0.038186 -0.053784 0.868078
-0.407141 0.242303 0.052424
-0.070881 0.082018 0.783195
-0.376617 0.058132 0.237846
-0.011653 -0.080552 0.837219
-0.261166 0.338135 0.145499
0.058156 0.061992 0.829999
-0.210848 0.255116 0.338061
-0.319664 -0.321357 0.093456
-0.137522 -0.422598 0.111177
0.133044 -0.380962 0.192950
0.134984 0.473803 0.014688
0.047653 0.059806 0.847061
-0.202908 0.041023 0.585974
0.175928 -0.374784 0.171956
0.059258 -0.075209 0.808502
-0.170939 0.427178 0.079780
-0.035278 -0.400784 0.195333
0.036992 -0.315080 0.365511
0.204894 0.107206 0.537508
-0.171207 -0.206249 0.463901
0.156469 -0.296215 0.329998
0.085929 0.142217 0.667678
-0.082032 0.173492 0.616185
-0.003008 -0.116031 0.767860
-0.013376 -0.027711 0.938459
0.085500 -0.252484 0.466865
0.137228 0.050409 0.707613
-0.070004 -0.026074 0.850596
0.017078 0.403450 0.192377
0.252617 -0.034180 0.490163
-0.198855 0.321730 0.243552
0.182943 -0.032415 0.628414
-0.253854 0.006372 0.492132
-0.298072 0.028082 0.401217
-0.151595 -0.280092 0.363029
0.201527 -0.281041 0.308343
0.211226 0.142197 0.490741
-0.015211 0.299414 0.400400
0.030593 0.035998 0.905517
0.312442 0.023767 0.373311
-0.115695 -0.135685 0.643373
-0.117707 0.028024 0.758006
0.461189 -0.149211 0.030547
0.190171 -0.033461 0.613815
0.046729 0.198141 0.592847
0.071932 -0.058300 0.814818
0.001348 -0.010452 0.978922
-0.100219 0.016165 0.796972
0.393850 -0.096396 0.189050
-0.002580 -0.043596 0.912656
0.014002 0.029546 0.934608
-0.088452 -0.136229 0.675149
0.000510 -0.227479 0.545042
-0.285815 0.097154 0.396247
0.132277 0.034771 0.726458
0.057191 -0.018670 0.879677
-0.011313 0.115015 0.768860
-0.220982 -0.002591 0.558005
-0.155348 0.087455 0.643454
-0.100088 0.040715 0.783895
-0.005265 0.026441 0.946079
0.129185 0.040892 0.728994
0.064061 -0.093733 0.772934
0.218442 0.116474 0.504892
-0.166048 -0.252708 0.395241
0.135898 0.070441 0.693862
-0.059651 -0.284696 0.418243
-0.307425 0.339190 0.084445
-0.060376 -0.116599 0.737394
-0.069815 0.045429 0.833411
0.074075 -0.211846 0.551153
0.410759 -0.220720 0.067390
-0.457541 -0.109090 0.059268
0.164113 -0.022762 0.668633
0.083415 -0.067901 0.784886
-0.286078 0.133357 0.368732
0.001620 -0.074566 0.850832
-0.362828 -0.023608 0.272809
0.063166 0.110350 0.745701
0.086490 0.014022 0.824761
-0.337764 0.365674 0.004405
0.137913 -0.137358 0.610708
0.027371 0.024875 0.926030
0.036257 0.037445 0.895756
-0.139624 0.461850 0.035012
-0.063508 -0.172029 0.633247
-0.032409 0.007852 0.933307
-0.422806 -0.017384 0.153673
-0.077787 -0.025581 0.836230
-0.019706 -0.010119 0.955695
-0.088712 -0.151380 0.649083
0.025969 -0.022278 0.931569
-0.145250 0.108538 0.637355
-0.064140 -0.445845 0.099131
0.041838 -0.057150 0.858345
-0.101763 -0.053010 0.770515
0.009436 0.022254 0.951656
0.059823 0.150883 0.675379
0.101806 0.352345 0.266483
0.225547 0.409100 0.065688
0.038531 -0.079369 0.823545
0.111258 -0.058540 0.748563
