x y z
0.084237 0.620763 0.473823
0.897740 0.419044 0.303769
0.063982 0.945170 0.944015
0.249883 0.461013 0.790912
0.577118 0.838953 0.986364
0.098563 0.741070 0.538588
0.476818 0.042556 0.691090
0.491471 0.151308 0.863865
0.307762 0.365941 0.431968
0.323874 0.154322 0.781732
0.847927 0.307993 0.879811
0.982190 0.885944 0.094196
0.641723 0.096786 0.877483
0.532134 0.990603 0.203125
0.486596 0.339232 0.149059
0.140880 0.145693 0.886728
0.797787 0.721991 0.862551
0.746906 0.810552 0.327100
0.761249 0.371045 0.976468
0.711477 0.700919 0.370230
0.298563 0.574312 0.265594
0.020299 0.094384 0.255410
0.613104 0.552253 0.526864
0.791625 0.378648 0.926249
0.271219 0.346828 0.549179
0.307518 0.339400 0.401049
0.168099 0.521235 0.049871
0.950644 0.420837 0.903189
0.332430 0.454359 0.493419
0.616253 0.683913 0.899953
0.623939 0.740468 0.377903
0.781689 0.595173 0.811774
0.573895 0.295845 0.470825
0.873781 0.234089 0.577996
0.169854 0.473903 0.665239
0.974809 0.680441 0.118899
0.573293 0.041629 0.189022
0.271682 0.604320 0.485683
0.656477 0.104197 0.426596
0.506568 0.218370 0.471446
0.515589 0.842131 0.133622
0.479907 0.807489 0.849349
0.702898 0.619265 0.712006
0.577494 0.413835 0.784957
0.857829 0.568833 0.729856
0.597500 0.223109 0.144924
0.187954 0.413199 0.310858
0.533419 0.460777 0.574713
0.042820 0.102087 0.817625
0.002468 0.734189 0.784034
0.814216 0.119713 0.276480
0.690865 0.467818 0.655844
0.153319 0.774874 0.904990
0.110037 0.808732 0.693016
0.945495 0.933860 0.750289
0.626823 0.593468 0.222637
0.222498 0.457214 0.737346
0.164633 0.652002 0.931291
0.916541 0.177255 0.269827
0.378690 0.930427 0.488711
0.701676 0.318171 0.206341
0.023186 0.872003 0.783391
0.375139 0.670566 0.305020
0.480467 0.610627 0.372540
0.662962 0.230100 0.489573
0.782285 0.808540 0.345628
0.970851 0.831300 0.627216
0.984209 0.019071 0.850623
0.815820 0.127471 0.511797
0.714500 0.258920 0.496232
0.709314 0.245246 0.411650
0.000718 0.156092 0.949120
0.523792 0.230431 0.010111
0.478052 0.205625 0.210874
0.397607 0.997249 0.930577
0.567281 0.183658 0.707562
0.424138 0.314502 0.440847
0.716712 0.784135 0.772658
0.034844 0.026020 0.616883
0.657819 0.662991 0.474633
0.000889 0.951756 0.979887
0.836269 0.838526 0.846192
0.613510 0.486298 0.746336
0.065332 0.418842 0.234916
0.543241 0.990254 0.068431
0.242580 0.908311 0.188719
0.382166 0.683123 0.888301
0.866820 0.415744 0.094823
0.099183 0.836443 0.283194
0.566687 0.974676 0.988964
0.575086 0.006094 0.949244
0.151340 0.777254 0.347468
0.350572 0.924407 0.841252
0.469139 0.819574 0.163874
0.401587 0.547804 0.941626
0.882129 0.086073 0.775941
0.685868 0.409299 0.812574
0.690515 0.239555 0.284039
0.457120 0.251395 0.706696
0.725564 0.404473 0.606002
0.889316 0.814468 0.726897
0.947789 0.691608 0.982637
0.707061 0.567234 0.700365
0.649451 0.417771 0.112723
0.980171 0.284547 0.549070
0.639818 0.248281 0.471142
0.301029 0.765655 0.620962
0.586556 0.668681 0.240694
0.657244 0.534483 0.083568
0.080359 0.761718 0.914940
0.337803 0.116969 0.961645
0.345969 0.416924 0.583061
0.717004 0.206159 0.872050
0.709311 0.844119 0.465375
0.312654 0.719294 0.300610
0.375286 0.889345 0.418485
0.075899 0.533689 0.989165
0.071213 0.231809 0.336972
0.308108 0.814310 0.409049
0.950331 0.984093 0.401283
0.066954 0.361024 0.843581
0.471674 0.035343 0.122386
0.788105 0.840670 0.563482
0.292224 0.992726 0.612062
0.306000 0.573131 0.337828
0.801465 0.741307 0.821227
0.342559 0.792818 0.719681
0.899922 0.533218 0.189239
0.294155 0.237354 0.431106
0.665012 0.263597 0.069931
0.587126 0.694393 0.106403
0.360659 0.336626 0.318535
0.036331 0.480196 0.227249
0.398664 0.351136 0.583031
0.650495 0.061360 0.766547
0.732559 0.044921 0.035275
0.925608 0.422016 0.795606
0.506195 0.744774 0.154740
0.650638 0.230714 0.842237
0.247390 0.426556 0.813703
0.922763 0.301443 0.120898
0.494689 0.158276 0.449619
0.569184 0.461010 0.263018
0.836688 0.420758 0.285050
0.803071 0.352197 0.013226
0.888006 0.157703 0.697195
0.591026 0.705898 0.074789
0.144752 0.265649 0.054105
0.669275 0.154277 0.193583
0.061076 0.221567 0.624527
0.612727 0.787001 0.079510
0.650886 0.433782 0.475488
0.045134 0.704165 0.330022
0.843594 0.262092 0.775366
0.066012 0.722532 0.670711
0.158043 0.284501 0.011530
0.550950 0.221785 0.119210
0.757226 0.218248 0.734552
0.410461 0.413941 0.577627
0.652694 0.649561 0.249426
0.876857 0.260917 0.766478
0.552546 0.392489 0.067708
0.317854 0.671343 0.779844
0.126030 0.762255 0.311514
0.485271 0.092256 0.545064
0.609707 0.829258 0.681936
0.495343 0.806614 0.487264
0.136918 0.655304 0.864537
0.482118 0.688650 0.914846
0.279149 0.992595 0.484865
0.211743 0.201269 0.357748
0.586164 0.745004 0.714073
0.494708 0.812926 0.639912
0.325456 0.993893 0.033433
0.231982 0.259847 0.258402
0.478511 0.430524 0.130025
0.944257 0.395784 0.837125
0.715881 0.416467 0.107016
0.574934 0.663833 0.727063
0.565659 0.591121 0.789007
0.128020 0.255106 0.186840
0.420340 0.003845 0.832330
0.281851 0.915583 0.526327
0.757978 0.254541 0.372408
0.020692 0.868824 0.183578
0.966713 0.278385 0.454600
0.134372 0.978692 0.579480
0.836348 0.329022 0.748171
0.013533 0.419515 0.010373
0.935257 0.129964 0.040268
0.059863 0.966080 0.202252
0.447571 0.758941 0.701412
0.649439 0.548191 0.889187
0.693404 0.267528 0.327271
0.467134 0.782185 0.413779
0.181094 0.774357 0.835123
0.228843 0.259782 0.140107
0.245813 0.638311 0.854501
0.517174 0.339605 0.423152
0.892656 0.235681 0.315396
