x y z
-0.675200 -0.682016 0.692906
-0.589937 -0.672577 0.429122
-0.465161 -0.726403 -0.003510
-0.170528 -0.826102 0.453368
-0.255920 -0.738205 0.435847
-0.647343 -0.512570 0.905346
-0.483970 0.001961 0.420051
-0.493709 -0.865495 0.025108
-0.597322 -0.375191 0.111662
-0.901762 -0.829815 0.757401
-0.914399 -0.911597 0.997063
-0.493451 -0.338012 0.161482
-0.761781 -0.100395 0.145114
-0.075680 -0.592811 0.886101
-0.142900 -0.609084 0.290639
-0.548907 -0.710736 0.603520
-0.964643 -0.925755 0.155551
-0.983793 -0.238751 0.298158
-0.967107 -0.989440 0.747204
-0.919374 -0.028028 0.244176
-0.112221 -0.404834 0.542871
-0.680854 -0.641832 0.725352
-0.326599 -0.325234 0.655246
-0.760258 -0.402165 0.562173
-0.615628 -0.127110 0.833224
-0.787970 -0.471716 0.637221
-0.589308 -0.408772 0.918696
-0.512487 -0.385276 0.480238
-0.550592 -0.366015 0.597188
-0.108239 -0.806736 0.949044
-0.729295 -0.726392 0.337070
-0.480383 -0.088512 0.519107
-0.790794 -0.665268 0.772868
-0.662675 -0.828492 0.927979
-0.036799 -0.554194 0.832558
-0.229304 -0.751464 0.414880
-0.295074 -0.610575 0.547121
-0.108750 -0.184002 0.398133
-0.177037 -0.717399 0.443110
-0.974646 -0.787794 0.518804
-0.175506 -0.893598 0.523500
-0.584665 -0.328767 0.038412
-0.593383 -0.810124 0.917200
-0.246306 -0.751306 0.885619
-0.457927 -0.348422 0.951171
-0.250933 -0.964601 0.595253
-0.185548 -0.587330 0.397773
-0.257830 -0.521108 0.833522
-0.505589 -0.574324 0.729632
-0.696069 -0.374734 0.890700
-0.786790 -0.094126 0.718884
-0.057920 -0.927139 0.535651
-0.855785 -0.890223 0.050377
-0.464397 -0.540588 0.451761
-0.256741 -0.884609 0.188427
-0.498361 -0.171688 0.129192
-0.843400 -0.063158 0.263241
-0.407668 -0.007989 0.185802
-0.985459 -0.705881 0.024877
-0.725322 -0.418004 0.893662
-0.153628 -0.991937 0.025749
-0.848086 -0.885815 0.460713
-0.402529 -0.052156 0.295777
-0.509334 -0.931563 0.212876
-0.238191 -0.292481 0.829433
-0.690740 -0.567055 0.918179
-0.564342 -0.672596 0.450326
-0.783813 -0.849949 0.294530
-0.533178 -0.841238 0.689729
-0.931426 -0.258317 0.832724
-1.010809 -0.162296 0.600343
-0.806366 -0.730314 0.787690
-0.187934 -0.475163 0.942196
-0.132945 -0.430666 0.013711
-0.435199 -0.240712 0.338283
-0.261960 -0.020119 0.737804
-0.480681 -0.531217 0.948808
-0.866619 -0.951341 0.079801
-0.601503 -0.504331 0.496757
-0.872001 -0.951814 0.111008
-0.933529 -0.388489 0.418823
-0.700607 -0.227239 0.013374
-0.590347 -0.834486 0.458064
-0.183216 -0.517463 0.684216
-0.040281 -0.196451 0.666448
-0.109167 -0.419271 0.359826
-0.465525 -0.975459 0.582489
-0.559425 -0.633373 0.765552
-0.993901 -0.586112 0.431160
-0.948645 -0.233686 0.947646
-0.335041 -0.997562 0.149287
-0.214889 -0.986998 0.416262
-0.780174 -0.901012 0.523609
-0.923214 -0.062382 0.555929
-0.251722 -0.660311 0.241128
-0.392863 -0.189522 0.245068
-0.817471 -0.921815 0.877695
-0.962868 -0.522609 0.858412
-0.913501 -0.991930 0.483728
-0.391458 -0.557703 0.405186
-0.524825 -0.335279 0.267659
-0.350881 -0.081521 0.393017
-0.345186 -0.200240 0.240626
-0.520886 -0.041217 0.994574
-0.595162 -0.042054 0.415876
-0.632541 -0.356752 0.453217
-0.178072 -0.469364 0.615992
-0.138852 -0.130523 0.304373
-0.832162 -0.107517 0.217117
-0.997460 -0.231952 0.175865
-0.111409 -0.686629 0.727126
-0.425058 -0.736734 0.872706
-0.004700 -0.702594 0.532515
-0.295403 -0.565926 0.932719
-0.678669 -0.101217 0.896076
-0.335608 -0.861993 0.134114
-0.260676 -0.325834 0.400607
-0.726539 -0.272284 0.719427
-0.401988 -0.084019 0.837499
-0.465572 -0.854129 0.195678
-0.482409 -0.310079 0.630496
-0.636458 -0.807959 0.545389
-0.463169 -0.572341 0.758041
-0.395970 -0.251040 0.924257
-0.141094 -0.526856 0.868831
-0.094082 -0.036585 0.196053
-0.807017 -0.342448 0.278938
-0.389864 -0.714708 0.503840
-0.807988 -0.335960 0.512200
-0.338388 -0.940291 0.746668
-0.833547 -0.305265 0.033698
-0.735936 -0.941089 0.631009
-0.536716 -0.960529 0.258609
-0.814585 -0.264192 0.839698
-0.765384 -0.826374 0.406826
-0.232587 -0.711383 0.254227
-0.706532 -0.888256 0.204867
-0.548243 -0.212015 0.088980
-0.312302 -0.550062 0.492073
-0.096061 -0.294372 0.058553
-0.586171 -0.644379 0.321489
-0.185857 -0.592066 0.159415
-0.619618 -0.886182 0.442914
-0.205293 0.002232 0.105748
-0.401471 -0.280342 0.278509
-0.439302 -0.690354 0.683637
-0.441080 -0.152709 0.306475
-0.274967 -0.816439 0.251191
-0.694966 -0.924078 0.079507
-0.444475 -0.464111 0.177804
-0.675285 -0.890326 0.360617
-0.950222 -0.398591 1.000240
-0.987000 -0.055251 0.050037
-0.284850 -0.083975 0.290630
-0.377197 -0.791603 0.598302
-0.374110 -0.461175 0.938313
-0.932563 -0.500692 0.931195
-0.030370 -0.231701 0.580613
-0.355486 -0.599314 0.592811
-0.730406 -0.064430 0.309080
-0.572998 -0.461961 0.704115
-0.105430 -0.308140 0.889388
-0.969806 -0.628858 0.367317
-0.907633 -0.635587 0.587829
-0.852894 -0.838005 0.577485
-0.189459 -0.085441 0.242578
-1.001226 -0.228825 0.008180
-0.570311 -0.870887 0.069275
-0.341813 -0.288803 0.971382
-0.476965 -0.382896 0.643026
-0.427275 -0.659802 0.324578
-0.406157 -0.015507 0.032459
-0.128089 -0.140665 0.305970
-0.785414 -0.416670 0.977587
-0.743649 -0.549581 0.144924
-0.641807 -0.481189 0.206311
-0.974242 -0.470897 0.727143
-0.865251 -0.007478 0.488009
-0.852786 -0.411072 0.844130
-0.769222 -0.509114 0.534074
-0.409176 -0.172857 0.604554
-0.955124 -0.191105 0.934227
-0.074407 -0.518902 0.895841
-0.368392 -0.187978 0.320181
-0.878054 -0.350210 0.536020
-0.294312 -0.153408 0.584522
-0.319548 -0.916589 0.903274
-0.587252 -0.286098 0.990881
-0.622357 -0.392414 0.774996
-0.748153 -0.349179 0.579820
-0.503280 -0.988006 0.163007
-0.606465 -0.419919 0.259746
-0.518431 -0.468872 0.627444
-0.235191 -0.667828 0.959764
-0.763216 -0.170291 0.682743
-0.741165 -0.834034 0.331163
-0.792196 -0.778484 0.642670
-0.295433 -0.939310 0.320813
-0.594798 -0.704309 0.950412
-0.986870 -0.569425 0.093387
