x y z
0.387071 0.998114 0.289123
0.908412 0.403427 0.567055
0.403680 0.330550 0.542945
0.102076 0.663930 0.242424
0.929987 0.363521 0.544528
0.393241 0.622223 0.486555
0.643559 0.830436 0.572850
0.078889 0.128381 0.262404
0.599062 0.049096 0.543735
0.786918 0.264448 0.214216
0.172253 0.093766 0.335046
0.293002 0.590382 0.762189
0.653774 0.014589 0.369963
0.846286 0.113680 0.524363
0.141480 0.537109 0.617656
0.718454 0.882330 0.575181
0.719289 0.210759 0.106040
0.887736 0.396290 0.511427
0.613759 0.746343 0.510944
0.821624 0.290641 0.257915
0.748429 0.109886 0.068162
0.103800 0.690514 0.853649
0.030512 0.981379 0.871148
0.189642 0.122545 0.950170
0.610540 0.412541 0.836368
0.605114 0.550219 0.652840
0.184103 0.695552 0.359572
0.344563 0.109777 0.113284
0.890379 0.256149 0.418014
0.171141 0.908985 0.244353
0.467855 0.262004 0.312141
0.332584 0.342371 0.192134
0.316181 0.341463 0.902495
0.502596 0.678895 0.864687
0.623630 0.837749 0.756840
0.897305 0.292757 0.476284
0.030269 0.678766 0.496340
0.166585 0.548339 0.384760
0.439451 0.737536 0.174748
0.646790 0.537337 0.336541
0.545297 0.276656 0.609515
0.285685 0.005552 0.053628
0.236987 0.927751 0.300630
0.060611 0.855938 0.843025
0.909092 0.679470 0.581147
0.547550 0.962964 0.765296
0.040834 0.677676 0.549461
0.661447 0.926395 0.005703
0.782974 0.688851 0.277549
0.360323 0.653979 0.218140
0.165585 0.211668 0.030277
0.311627 0.879153 0.272991
0.343929 0.641360 0.570386
0.717311 0.099597 0.963505
0.029894 0.818338 0.311795
0.435000 0.608550 0.451258
0.597588 0.416235 0.611007
0.839281 0.116379 0.561727
0.079042 0.481168 0.530762
0.524073 0.191685 0.712690
0.525448 0.375895 0.075931
0.788645 0.582717 0.988574
0.773299 0.149978 0.546822
0.291586 0.162610 0.842751
0.379650 0.179857 0.544674
0.510610 0.944323 0.495075
0.090497 0.260282 0.043878
0.510362 0.741956 0.801757
0.693158 0.204956 0.369361
0.701295 0.835162 0.510127
0.749281 0.159132 0.076855
0.518541 0.932986 0.155428
0.064998 0.251003 0.642061
0.680979 0.280630 0.711841
0.560382 0.653822 0.732572
0.007617 0.701819 0.457344
0.493334 0.203126 0.591852
0.876052 0.299936 0.093354
0.609522 0.449169 0.557090
0.533308 0.879599 0.919107
0.677374 0.488645 0.981566
0.979127 0.419536 0.777786
0.033671 0.806913 0.204030
0.947797 0.417626 0.092212
0.908866 0.865791 0.455255
0.903869 0.466036 0.666280
0.895923 0.784282 0.202225
0.942603 0.532103 0.426878
0.160100 0.060664 0.424831
0.764060 0.783340 0.591165
0.311870 0.957661 0.494986
0.955408 0.470201 0.469655
0.696432 0.478676 0.449617
0.129839 0.306686 0.198945
0.723364 0.465872 0.037041
0.256379 1.007382 0.849794
0.229544 0.921954 0.734790
0.589093 0.822546 0.406002
0.522553 0.379935 0.891506
0.580744 0.944470 0.863184
0.444482 0.523596 0.448319
0.827268 0.800900 0.909657
0.499009 0.853636 0.557771
0.702017 0.357920 0.927738
0.483371 0.980610 0.261307
0.249931 0.335548 0.346869
0.554966 0.646741 0.218502
0.387894 0.507484 0.519903
0.759484 0.438319 0.300094
0.902392 0.054948 0.405704
-0.008626 0.499392 0.659085
0.952985 0.267452 0.450879
0.057811 0.912814 0.388245
0.947508 0.795259 0.468142
0.409023 0.199299 0.747670
0.194469 0.545224 0.918880
0.975682 0.626764 0.488499
0.355350 0.694705 0.267343
0.225703 0.182350 -0.012958
0.045246 0.501670 0.608319
0.305288 0.578460 0.611190
0.149724 1.011613 0.383437
0.336026 0.319117 0.779600
0.045386 0.157321 0.793668
0.088156 0.124828 0.820158
0.431532 0.911976 0.753346
0.827459 0.344630 0.811458
0.340819 0.581806 0.308753
0.427926 0.749654 0.499081
0.138262 0.043926 0.092647
0.409291 0.692958 0.939639
0.771382 0.693350 0.036877
0.024371 0.601661 0.758620
0.880144 0.527042 0.269067
0.897002 0.096832 0.630972
0.033400 0.486726 0.885980
0.479279 0.103022 0.473211
0.461576 0.524056 0.411290
0.874775 0.140365 0.484088
0.969819 0.002305 0.109408
0.235899 0.523339 0.048290
0.851352 0.860093 0.533899
0.245668 0.752537 0.717507
0.910350 0.664778 0.755865
0.728503 0.805759 0.137068
0.828533 0.733696 0.020528
0.072010 0.084635 0.300879
0.532093 0.788673 0.341878
0.650396 0.717268 0.265428
0.010527 0.199292 0.590521
0.951275 0.162357 0.748389
0.798714 0.469209 0.322500
0.505289 0.840078 0.407394
0.908756 0.405660 0.117376
0.037094 0.230817 0.970215
0.014755 0.918300 0.864122
0.533779 0.217050 0.242405
0.213452 0.379873 0.480185
0.571621 0.111665 0.734526
0.727358 0.245761 0.892513
0.275804 0.733418 0.179589
0.653891 0.706387 0.931277
0.632063 0.433981 0.676222
0.342484 0.029459 0.676673
0.259593 0.813851 0.046035
0.901377 0.877513 0.105082
0.346243 0.880365 0.083303
0.297935 0.252942 0.366568
0.849098 0.399852 0.835947
0.099024 0.356256 0.422728
1.004358 0.929937 0.604569
0.219732 0.810269 0.811773
0.055900 0.325374 0.163403
0.760283 0.937068 0.507453
0.498370 0.834142 0.291207
0.041447 0.980882 0.983358
0.431174 0.568419 0.125559
0.461675 0.691450 0.050467
0.660500 0.671272 0.638747
0.296868 0.799119 0.090782
0.536527 0.452057 0.486350
0.427371 0.773941 0.601559
0.071631 0.204389 0.860811
0.395910 0.714854 0.322727
0.736019 0.562305 0.306734
0.891381 0.579031 0.693887
0.708364 -0.003910 0.583484
0.155083 0.071628 0.356219
0.818448 0.904884 0.118943
0.328247 0.201902 0.424740
0.906258 0.944508 0.596844
0.557169 0.177195 0.320448
0.328828 0.556721 0.950375
0.866105 0.288185 0.459568
0.848421 0.270150 0.076663
0.282354 0.931317 0.436538
0.779109 0.334838 0.118132
0.553637 0.878402 0.179927
0.660382 0.116136 0.714994
0.784198 0.053287 0.833303
