x y z
0.265681 0.950558 0.601209
0.599061 0.151455 0.836911
0.335827 0.407472 0.557140
0.056252 0.474775 0.845024
0.274426 0.654567 0.904783
0.029666 0.445659 0.775342
0.151887 0.860993 0.789661
0.402948 0.684514 0.458521
0.631724 0.328104 0.904385
0.527112 0.461030 0.648450
0.505602 0.980733 0.598141
0.044849 0.208595 0.656498
0.168762 0.205331 0.893644
0.526468 0.893749 0.893083
0.849291 0.739825 0.945521
0.367377 0.220596 0.057123
0.448459 0.292188 0.729869
0.768317 0.095450 0.807347
0.181381 0.216465 0.372373
0.000650 0.710344 0.328527
0.978227 0.637551 0.835084
0.630314 0.281499 0.527393
0.592755 0.022216 0.123316
0.991135 0.167932 0.226756
0.314374 0.235754 0.047886
0.188242 0.162005 0.874959
0.269905 0.181063 0.108478
0.024524 0.350321 0.193416
0.637662 0.856859 0.475304
0.426838 0.276308 0.264738
0.069450 0.806656 0.427348
0.012811 0.395825 0.993370
0.035169 0.343287 0.937972
0.141073 0.484617 0.495844
0.941048 0.323375 0.688508
0.242602 0.206910 0.907214
0.020795 0.269541 0.350167
0.232955 0.063580 0.901843
0.401696 0.082430 0.208127
0.626047 0.967278 0.867442
0.784478 0.256941 0.879742
0.328698 0.290304 0.760583
0.151783 0.692635 0.147565
0.685089 0.362697 0.137473
0.702220 0.856796 0.953543
0.607650 0.540035 0.141877
0.120175 0.355577 0.760649
0.348787 0.239032 0.749825
0.108910 0.769153 0.781933
0.852211 0.089506 0.212564
0.364730 0.743146 0.016621
0.394879 0.016066 0.208995
0.468940 0.405008 -0.003537
0.828154 0.608970 0.585374
0.923845 0.915551 0.293176
0.256759 0.063168 0.133924
0.158052 0.930859 0.577888
0.559940 0.021094 0.805786
0.556457 0.409612 0.413321
0.197211 0.986468 0.834638
0.894151 0.005334 0.218832
0.106101 0.741509 0.407164
0.228985 0.343964 0.489250
0.182278 0.690513 0.199673
0.871001 0.131028 0.054594
0.022405 0.162948 0.235368
0.059328 0.693308 0.694857
0.753239 0.195214 0.612049
0.660434 0.744372 0.631619
0.384011 0.875243 0.727779
0.022703 0.915475 0.375221
0.772538 0.810694 0.671521
0.589866 0.677885 0.422503
0.608579 0.796715 0.170573
0.885000 0.893057 0.187468
0.256783 0.863409 0.081484
0.068209 0.938791 0.648848
0.325340 0.567826 0.368727
0.246130 0.947943 0.385541
0.064417 0.505437 0.389101
0.431653 0.548745 0.876163
0.035854 0.188222 0.232201
0.267464 0.976142 0.440042
0.829778 0.532997 -0.004722
0.605813 0.964075 0.399568
0.280597 0.941096 0.050468
0.826440 0.316533 0.966284
0.357401 0.198641 0.241811
0.265611 0.200764 0.242004
0.256699 0.286488 0.353662
0.355535 0.295282 0.473377
0.436205 0.362825 0.956942
0.571528 0.132212 0.800552
0.438973 0.430384 0.889057
0.746427 0.221554 -0.003248
0.662900 0.270450 0.612707
0.936641 0.678399 0.114445
0.573021 0.916584 0.465123
0.315605 0.992442 0.854442
0.864777 0.354505 0.220189
0.382779 0.454073 0.114703
0.257033 0.364571 0.720137
0.670440 0.250606 0.954539
0.135884 0.267005 0.408810
0.490428 0.597488 0.256647
0.329601 0.278486 0.533120
0.713996 0.452101 0.731455
0.261939 0.507829 0.972511
0.245770 0.031568 0.762941
0.960594 0.950680 0.309993
0.846792 0.376906 0.902720
0.854083 0.572867 0.276111
0.492329 0.889300 0.736489
0.827445 0.081984 0.580026
0.871343 0.357380 0.031208
0.231037 0.571123 0.044145
0.186849 0.200783 0.406599
0.130695 0.084668 0.226265
0.336922 0.072737 0.485905
0.398533 0.111002 0.261845
0.023352 0.992448 0.501699
0.818630 0.573868 0.158055
0.346800 0.718121 0.813677
0.797131 0.669599 0.118416
0.033627 0.430588 0.935800
0.415268 0.417240 0.810163
0.340993 0.007831 0.694447
0.952815 0.891935 0.120359
0.079114 0.156771 0.063332
0.113645 0.026449 0.211119
0.354821 0.693734 0.194957
0.259123 0.862188 0.281969
0.657440 0.383858 0.826107
0.126525 0.258625 0.410966
0.260592 0.300253 0.630839
0.244576 0.966934 0.084466
0.150689 0.308362 0.162878
0.846391 0.221649 0.880713
0.510513 0.962529 0.872767
0.132307 0.881477 0.588803
0.421820 0.022129 0.376278
0.172484 0.184723 0.323248
0.360490 0.899053 0.237557
0.526836 0.471759 0.152384
0.940112 0.385715 0.746645
0.589378 0.922169 0.207661
0.630789 0.910038 0.198719
0.459147 0.342449 0.850376
0.549083 0.491765 0.500980
0.742603 0.727410 0.673564
0.021165 0.725011 0.620085
0.383945 0.531070 0.341823
0.683886 0.941071 0.119616
0.283078 0.735708 0.439569
0.541709 0.482944 0.531106
0.123163 0.035784 0.983893
0.036097 0.163683 0.998375
0.783020 0.944719 0.559593
0.766160 0.466491 0.071270
0.868387 0.339912 0.497205
0.190678 0.453536 0.804636
0.304736 0.774085 0.491224
0.366110 0.064894 0.399620
0.377954 0.049543 0.359050
0.631036 0.818105 0.220278
0.228357 0.203319 0.449552
0.557554 0.706826 0.879084
0.677443 0.191329 0.456283
0.153303 0.169089 0.507737
0.572466 0.181227 0.425398
0.215813 0.769737 0.572237
0.176531 0.567343 0.531764
0.134994 0.849315 0.744451
0.101975 0.575408 0.998191
0.639462 0.533486 0.743549
0.933856 0.758272 0.152019
0.932731 0.338842 0.348148
0.278518 0.238469 0.531440
0.225495 0.403206 0.783803
0.078964 0.693990 0.289670
0.987776 0.927615 0.578459
0.372223 0.667070 0.434065
0.276253 0.416188 0.835425
0.549263 0.102386 0.366664
0.043568 0.929293 0.376534
0.481218 0.025565 0.304872
0.351699 0.647741 0.319771
0.731136 0.236481 0.816802
0.874841 0.531125 0.569702
0.723174 0.860493 0.226657
0.915625 0.796905 0.822236
0.968936 0.211360 0.940224
0.212686 0.298118 0.361564
0.935635 0.048533 0.242498
0.017814 0.044258 0.005263
0.024916 0.395720 0.796964
0.394709 0.844949 0.142006
0.576820 0.761670 0.534149
0.372339 0.175480 0.192114
0.586380 0.910762 0.724717
