x y z
0.361411 0.927237 0.303819
0.579938 0.650949 0.887870
0.414549 0.332090 0.731858
0.805873 0.722617 0.472053
0.259835 0.206614 0.666170
0.896819 0.509264 0.438401
0.134406 0.910696 0.416338
0.728743 0.363806 0.226609
0.970777 0.028758 0.259711
0.784757 0.767595 0.884485
0.354147 0.617417 0.770107
0.763771 0.935290 0.599201
0.304214 0.835721 0.039797
0.695776 0.961098 0.133672
0.102911 0.492141 0.529434
0.222381 0.591654 0.117115
0.271295 0.436188 0.868448
0.685197 0.354979 0.971008
0.285219 0.557313 0.836782
0.235103 0.208765 0.851448
0.563552 0.353575 0.632221
0.966245 0.529756 0.740635
0.662842 0.935036 0.709428
0.571974 0.601405 0.852995
0.363959 0.964229 0.263838
0.275462 0.538659 0.654702
0.983836 0.594672 0.283639
0.528620 0.804649 0.643141
0.360218 0.593448 0.381791
0.318673 0.354070 0.709804
0.097711 0.455262 0.401800
0.715522 0.494135 0.531986
0.277340 0.392955 0.283916
0.086627 0.668049 0.996217
0.575387 0.495997 0.730747
0.951334 0.369919 0.331972
0.919888 0.649543 0.334570
0.345932 0.227109 0.885695
0.674872 0.901297 0.791365
0.617619 0.456356 0.365101
0.373193 0.757338 0.466586
0.324591 0.485012 0.392728
0.011969 0.967858 0.455396
0.271743 0.707699 0.715529
0.500978 0.199762 0.206204
0.265468 0.366664 0.266859
0.273084 0.453648 0.822303
0.173759 0.605995 0.971445
0.447172 0.360610 0.715071
0.502526 0.945816 0.010907
0.047964 0.850382 0.616231
0.345718 0.767428 0.064989
0.600767 0.051039 0.531490
0.806732 0.042630 0.122752
0.046241 0.758540 0.340148
0.842482 0.974540 0.232082
0.279256 0.694576 0.449158
0.361874 0.861858 0.359311
0.230405 0.160761 0.407398
0.772989 0.232027 0.312370
0.660779 0.852898 0.902405
0.542091 0.098075 0.302449
0.882097 0.086057 0.181109
0.397767 0.384597 0.457810
0.514530 0.979075 0.878312
0.495865 0.408020 0.946571
0.682509 0.632574 0.641016
0.629664 0.104984 0.872197
0.787116 0.360939 0.074722
0.024132 0.204448 0.735614
0.020206 0.802786 0.815860
0.299800 0.452377 0.435311
0.887253 0.630808 0.285335
0.445258 0.706591 0.050540
0.637994 0.477155 0.243089
0.198139 0.445204 0.048602
0.388020 0.099018 0.733595
0.032864 0.496610 0.337919
0.716109 0.661069 0.724296
0.943446 0.973165 0.723555
0.788772 0.043528 0.906090
0.121166 0.688687 0.205583
0.869634 0.130405 0.404475
0.655826 0.921656 0.724893
0.605227 0.365414 0.559729
0.087519 0.422302 0.993333
0.953137 0.022329 0.824612
0.765764 0.010998 0.676922
0.634748 0.429578 0.345012
0.005283 0.795010 0.949598
0.928683 0.222169 0.913628
0.871242 0.617814 0.239491
0.589326 0.024375 0.583982
0.618654 0.487755 0.855006
0.100397 0.171338 0.304344
0.256853 0.174072 0.971745
0.069229 0.944096 0.960825
0.703632 0.622307 0.951163
0.922083 0.149915 0.207072
0.176371 0.363888 0.182171
0.499402 0.044768 0.148611
0.927562 0.434758 0.410846
0.321731 0.050919 0.610042
0.390973 0.274188 0.576427
0.191973 0.038174 0.737045
0.709601 0.279424 0.751707
0.861155 0.785804 0.944417
0.814577 0.120214 0.699111
0.542092 0.461490 0.274987
0.431416 0.506854 0.619096
0.921351 0.988674 0.394922
0.594002 0.827691 0.941013
0.619954 0.182019 0.991511
0.977417 0.421049 0.878382
0.324443 0.261190 0.772305
0.111650 0.483525 0.946900
0.327479 0.567110 0.736231
0.643610 0.550049 0.346795
0.497329 0.044955 0.613066
0.613673 0.554377 0.100417
0.597542 0.416368 0.152800
0.995404 0.491625 0.114444
0.250466 0.221348 0.774554
0.647114 0.810924 0.405781
0.367919 0.993640 0.209277
0.699975 0.838556 0.754465
0.179136 0.750382 0.171601
0.120637 0.312655 0.282074
0.160563 0.685666 0.819973
0.072029 0.995128 0.872165
0.459340 0.109352 0.104950
0.456370 0.103241 0.627860
0.900174 0.179647 0.370683
0.257770 0.921591 0.545305
0.833292 0.672062 0.045378
0.967984 0.648711 0.963144
0.968765 0.733425 0.904653
0.863691 0.395469 0.161791
0.591607 0.335260 0.914881
0.768142 0.753232 0.543965
0.458644 0.047375 0.644843
0.450327 0.994247 0.668456
0.561520 0.530648 0.954886
0.719751 0.888348 0.342336
0.541084 0.959038 0.634833
0.170422 0.649009 0.515710
0.310745 0.330499 0.819581
0.048857 0.749155 0.763444
0.535535 0.745993 0.369781
0.075054 0.032576 0.136325
0.856141 0.124337 0.606737
0.981544 0.614865 0.150265
0.606705 0.548412 0.196810
0.637356 0.293538 0.741150
0.524149 0.113441 0.266565
0.704870 0.210854 0.274780
0.626018 0.952011 0.845604
0.838204 0.412662 0.530216
0.154009 0.284663 0.995854
0.077268 0.068351 0.177920
0.730677 0.043727 0.733216
0.277034 0.760100 0.420072
0.996107 0.172649 0.874255
0.969846 0.555201 0.115024
0.012536 0.635713 0.800426
0.558477 0.327276 0.379556
0.105205 0.144543 0.547575
0.956737 0.681543 0.247266
0.953772 0.807038 0.282802
0.424412 0.791317 0.408906
0.313360 0.743369 0.019415
0.083936 0.645719 0.719611
0.336698 0.510550 0.688992
0.437580 0.132675 0.325225
0.286208 0.234231 0.497301
0.228749 0.969262 0.161426
0.393489 0.736597 0.133678
0.058022 0.603791 0.457834
0.863470 0.884503 0.285694
0.172069 0.544290 0.529801
0.294349 0.700186 0.660665
0.642665 0.377915 0.789177
0.924900 0.995339 0.794202
0.983001 0.270915 0.885704
0.420526 0.788995 0.436338
0.317400 0.363572 0.390626
0.817206 0.966949 0.048232
0.653709 0.978044 0.471224
0.138025 0.867315 0.386479
0.798778 0.592945 0.244369
0.185574 0.641412 0.166890
0.286444 0.740143 0.916254
0.548868 0.349869 0.530295
0.731478 0.334077 0.099137
0.766814 0.229665 0.348557
0.660045 0.496800 0.817450
0.438580 0.220252 0.515754
0.300007 0.920202 0.562455
0.485593 0.433726 0.463105
0.596115 0.919184 0.099107
