x y z
0.747216 0.255420 0.189323
0.983115 0.683050 0.236797
0.235721 0.806442 0.451590
0.899530 0.345621 0.384487
0.656748 0.292608 0.349744
0.267417 0.392391 0.391420
0.872701 0.026494 0.103558
0.759465 0.464511 0.973142
0.438927 0.992126 0.704383
0.008603 0.244068 0.731331
0.231727 0.702971 0.563066
0.075010 0.215212 0.579260
0.876693 0.889963 0.799895
0.288284 0.228222 0.565736
0.780534 0.149108 0.314288
0.735156 0.032078 0.627878
0.569413 0.463439 0.124132
0.781079 0.463712 0.210812
0.959988 0.177688 0.950627
0.814644 0.613189 0.830087
0.012914 0.583089 0.183565
0.412969 0.401699 0.150295
0.936680 0.421332 0.530795
0.614162 0.557065 0.435765
0.455656 0.910915 0.734433
0.070264 0.164539 0.112757
0.362424 0.255112 0.206064
0.783547 0.203722 0.781715
0.159069 0.568131 0.839606
0.436121 0.014021 0.169636
0.750402 0.851178 0.124141
0.712369 0.382946 0.978476
0.353509 0.437569 0.433037
0.252461 0.640764 0.209343
0.087095 0.385543 0.532971
0.448125 0.120227 0.063739
0.767008 0.549682 0.184906
0.182552 0.738041 0.935407
0.799595 0.651282 0.891476
0.987505 0.699479 0.714040
0.153981 0.413894 0.825728
0.772667 0.518243 0.362948
0.196443 0.561237 0.929860
0.932145 0.005729 0.540200
0.702550 0.271659 0.042944
0.050835 0.375112 0.712901
0.760029 0.701797 0.990964
0.726248 0.960720 0.521849
0.296051 0.290307 0.143964
0.503080 0.101262 0.325502
0.797098 0.910146 0.691776
0.488915 0.772921 0.962083
0.935203 0.002649 0.319938
0.329827 0.591197 0.211592
0.112881 0.976794 0.069395
0.142978 0.949775 0.143875
0.183592 0.529342 0.967012
0.689971 0.598181 0.404295
0.362975 0.373842 0.480922
0.838275 0.987648 0.883565
0.294488 0.375365 0.523393
0.726152 0.039935 0.906339
0.872450 0.283888 0.562673
0.259261 0.115822 0.299471
0.846944 0.030591 0.228175
0.103594 0.255362 0.462209
0.654498 0.319863 0.839096
0.158714 0.664912 0.576330
0.293765 0.553320 0.780710
0.616008 0.776229 0.279806
0.116798 0.470363 0.390068
0.084391 0.092826 0.301205
0.930392 0.096380 0.420863
0.519070 0.838511 0.169522
0.779268 0.275448 0.453879
0.682883 0.898203 0.990503
0.942305 0.896293 0.908735
0.217513 0.755095 0.030470
0.675275 0.643423 0.276186
0.900420 0.847001 0.568014
0.362802 0.027267 0.623602
0.172323 0.631348 0.220501
0.811778 0.617630 0.207655
0.483273 0.432973 0.849874
0.383282 0.556678 0.157538
0.257846 0.043222 0.694825
0.989852 0.403383 0.076047
0.504089 0.154005 0.768892
0.224723 0.340883 0.941761
0.415212 0.838221 0.058471
0.145737 0.544195 0.041030
0.762233 0.196709 0.122203
0.892533 0.066740 0.507091
0.713126 0.618623 0.318579
0.238156 0.803950 0.160039
0.299394 0.598930 0.203870
0.068613 0.335726 0.356202
0.693899 0.170066 0.571823
0.390172 0.752277 0.138535
0.675322 0.188609 0.240630
0.711777 0.066584 0.073079
0.870721 0.777767 0.124197
0.212356 0.629388 0.746960
0.747496 0.921001 0.162656
0.728432 0.684573 0.141404
0.513452 0.620242 0.112485
0.885711 0.439282 0.099002
0.052545 0.873199 0.326208
0.015805 0.580785 0.406758
0.818143 0.043203 0.608270
0.323233 0.030122 0.808375
0.129461 0.122639 0.093935
0.083306 0.868287 0.160789
0.107950 0.371432 0.565734
0.277198 0.251039 0.806088
0.800145 0.257387 0.456552
0.570912 0.203342 0.553218
0.050648 0.006815 0.815535
0.114329 0.318608 0.114684
0.830518 0.905669 0.560962
0.670754 0.157332 0.260661
0.630936 0.414522 0.964945
0.309281 0.121378 0.389961
0.039211 0.664540 0.518511
0.917157 0.432325 0.945392
0.157011 0.271407 0.481844
0.401345 0.448485 0.396676
0.788383 0.984017 0.603182
0.344335 0.051639 0.018185
0.086468 0.968893 0.072518
0.509684 0.817506 0.934366
0.303392 0.526832 0.543463
0.899606 0.508485 0.574186
0.739419 0.323823 0.174931
0.681587 0.828745 0.684965
0.871029 0.157230 0.421214
0.831991 0.405932 0.131097
0.837221 0.313089 0.119425
0.755989 0.166396 0.998256
0.725034 0.550487 0.845940
0.541279 0.873964 0.040931
0.625872 0.490931 0.444559
0.446153 0.431301 0.972509
0.527369 0.056167 0.252663
0.999627 0.359472 0.780803
0.288730 0.510524 0.449312
0.641844 0.285405 0.249427
0.359039 0.258847 0.507511
0.676918 0.859132 0.539585
0.904153 0.786902 0.229627
0.072024 0.090548 0.892372
0.224831 0.278741 0.558486
0.549506 0.052920 0.631680
0.336503 0.119788 0.682677
0.508935 0.655677 0.699798
0.580621 0.716959 0.330792
0.574980 0.533087 0.760705
0.557137 0.439299 0.468075
0.058358 0.765480 0.462204
0.910068 0.096069 0.268384
0.369284 0.165913 0.453326
0.934868 0.661492 0.892247
0.376090 0.551858 0.418469
0.944513 0.121783 0.187966
0.342723 0.518026 0.330875
0.853364 0.378745 0.997026
0.897433 0.537650 0.063679
0.918456 0.992344 0.679341
0.896260 0.644046 0.719848
0.351208 0.409083 0.480391
0.877820 0.496557 0.833720
0.363578 0.956161 0.589535
0.826289 0.039706 0.686351
0.678967 0.905217 0.406401
0.782122 0.891055 0.345459
0.470681 0.613116 0.742636
0.375588 0.962545 0.352161
0.152954 0.089770 0.155123
0.002865 0.138184 0.017773
0.787041 0.036224 0.476773
0.099061 0.528276 0.894038
0.231557 0.927595 0.736131
0.283178 0.276001 0.163536
0.796658 0.799546 0.020748
0.817719 0.436339 0.192853
0.256064 0.176766 0.922914
0.356727 0.359357 0.076905
0.472473 0.385204 0.670607
0.047573 0.429113 0.163231
0.013813 0.794972 0.646358
0.299636 0.386793 0.926608
0.002847 0.714100 0.733790
0.995862 0.430240 0.474763
0.437435 0.495705 0.335991
0.003070 0.654950 0.100335
0.166017 0.818211 0.738547
0.560021 0.303988 0.093597
0.522385 0.661519 0.500455
0.348978 0.378424 0.121537
0.746572 0.858642 0.121362
