x y z
0.331809 0.852525 0.845652
0.873684 0.723978 0.438579
0.845578 0.225627 0.797681
0.802278 0.658543 0.110431
0.228360 0.043242 0.217474
0.705870 0.966672 0.830387
0.399522 0.654550 0.614095
0.703706 0.280933 0.340459
0.713837 0.582727 0.904570
0.504028 0.491758 0.235236
0.026291 0.476244 0.533647
0.089035 0.248953 0.534273
0.824401 0.641428 0.064761
0.150725 0.267970 0.585141
0.612168 0.337301 0.382160
0.066151 1.002963 0.432394
0.318316 0.081289 0.827829
0.579102 0.859822 0.582537
0.587466 0.257440 0.385142
0.047410 0.585159 0.997335
0.771172 0.278646 0.778116
0.062289 0.691560 0.301195
0.595195 0.338636 0.173709
0.256181 0.913147 0.949358
0.698458 0.339367 0.701704
0.666499 0.327776 0.872869
0.821627 0.308887 0.805935
0.114589 0.028643 0.869510
0.185104 0.282407 0.578439
0.821506 0.418126 0.649764
0.144970 0.798679 0.100711
0.135578 0.450501 0.089179
0.112975 0.796162 0.918354
0.158935 0.556404 0.100830
0.041065 0.540028 0.666259
0.937012 0.140974 0.467984
0.085646 0.236163 0.827608
0.483239 0.918651 0.478878
0.680862 0.901398 0.583956
0.099680 0.605864 0.698997
0.474747 0.684504 0.702165
0.416191 0.878589 0.146261
0.553979 0.498159 0.586169
0.501535 0.407835 0.664110
0.339521 0.682013 0.594621
0.138950 0.966762 0.457401
0.769855 0.972818 0.494435
0.815896 0.487701 0.448704
0.938540 0.815417 0.402072
0.538247 0.283748 0.550353
0.805170 0.870538 0.252878
0.666347 0.294473 0.953403
0.482579 0.645936 0.788856
0.770503 0.737800 0.503707
0.861055 0.435404 0.738860
0.846139 0.556524 0.197974
1.006725 0.498437 0.370248
0.991150 0.812569 0.631680
0.505939 0.504907 0.866520
0.522016 0.613357 0.673046
0.336003 0.044992 0.368746
0.897777 0.588193 0.351000
0.004846 0.556829 0.230844
0.253093 0.242624 0.388911
0.395711 1.010562 0.889229
0.980930 0.939992 0.288922
0.777130 0.608085 0.164160
0.671354 0.574000 0.110679
0.760006 0.814551 0.448837
0.511811 0.638362 0.139069
0.375867 0.120215 0.459240
0.180888 0.109526 0.690222
0.074153 0.048822 0.593233
0.268338 0.360111 0.229346
0.124228 0.641459 0.466255
0.500143 0.266199 0.876598
0.559768 0.866763 0.314822
0.991543 0.581656 0.823690
0.653688 0.859649 0.005630
0.432250 0.674074 0.251734
0.844941 0.609380 0.794643
0.791026 0.835874 0.947498
0.535645 0.819989 0.973234
0.253060 0.304984 0.186745
0.569002 0.794111 0.247580
0.831985 0.173999 0.079823
0.932409 0.557318 0.248024
0.385338 0.226740 0.286558
0.052092 0.998207 0.666301
0.634548 0.232563 0.870897
0.357216 0.202217 0.597617
0.041409 0.121434 0.324451
0.041167 1.009902 0.846128
0.943492 0.283791 0.086309
0.585199 0.060820 0.630594
0.265673 0.968926 0.623066
0.327757 0.696329 0.903103
0.087929 0.701595 0.893359
0.710631 0.807257 0.609896
0.600238 0.425154 0.236125
0.593746 0.942787 0.494578
0.722658 0.287847 0.551953
0.619015 0.623584 0.412710
0.386701 0.137762 0.186927
0.069193 0.830362 0.323234
0.834249 0.957217 0.780924
0.057714 0.506130 0.158506
0.628229 0.031085 0.892436
0.702244 0.316381 0.740700
0.334555 0.959004 0.838299
0.103897 0.501485 0.255826
0.223381 0.080308 0.561742
0.855940 0.131853 0.080149
0.148875 0.642950 0.249532
0.395806 0.514557 0.643814
0.039873 0.793901 0.394549
0.912311 0.056277 0.812340
0.668292 0.030954 0.648162
0.693072 0.150965 0.278842
0.630846 0.829884 0.866674
0.952415 0.101852 0.132890
0.514986 0.421193 0.799549
0.201469 0.167312 0.521792
0.183000 0.437294 0.278278
0.235647 0.211557 0.809544
0.545620 0.550002 0.351649
0.354480 0.036921 0.860507
0.470161 0.597133 0.288277
0.248019 0.701272 0.488615
0.217960 0.701586 0.042349
0.642300 0.353702 0.884265
0.270755 0.355898 0.582181
0.013860 0.479570 0.194106
0.634022 0.132698 0.732610
0.066651 0.442353 0.129168
0.417114 0.278690 0.415738
0.127557 0.963140 0.672586
0.992747 0.765370 0.678667
0.938456 0.015951 0.576694
0.643811 0.055624 0.871491
0.559501 1.013306 0.640622
0.617405 0.765999 0.404449
0.795249 0.295491 0.794330
0.279612 0.135202 0.260373
0.462489 0.403076 0.306134
0.934719 0.702268 0.329974
0.774621 0.612051 0.268028
0.407001 0.205018 0.648221
0.600081 0.748227 0.054227
0.896414 0.410083 0.965549
0.207717 0.059672 0.600607
0.836563 0.946021 0.953945
0.504029 0.383095 0.336414
0.770942 0.995409 0.076162
0.799056 0.768842 0.762204
0.253590 0.681352 0.232542
0.924668 0.978716 0.147270
0.794578 0.973829 0.613005
0.103015 0.808573 0.774372
0.280427 0.872170 0.046073
0.395209 0.853461 0.034355
0.382806 0.961712 0.623737
0.644090 0.603724 0.423205
0.369790 0.112683 0.179599
0.738881 0.767321 0.241911
0.171577 0.320722 0.671772
0.707643 0.851072 0.660037
0.918612 0.415273 0.527512
0.109141 0.310642 0.509520
0.856215 0.470866 0.588999
0.939756 0.151268 0.522979
0.330538 0.965598 0.015925
0.837058 0.586803 0.561042
0.789517 0.573823 0.101076
0.532226 0.141764 0.326454
0.056039 0.671512 0.641303
0.859688 0.269218 0.594024
0.142043 0.988616 0.945366
0.755235 0.790457 0.923949
0.721668 0.222208 0.099811
0.999044 0.503841 0.130302
0.344906 0.253777 0.391955
0.328775 0.458206 0.182984
0.689238 0.751561 0.611741
0.977358 0.669113 0.292887
0.591233 1.000136 0.929157
0.593197 0.909190 1.009987
0.633785 0.806683 0.614531
0.139631 0.858820 0.436401
0.662078 0.275478 0.608636
0.207279 0.048007 0.659572
0.856555 0.656852 0.150215
0.578679 0.945705 0.320686
0.895628 0.573632 0.147843
0.961295 0.846812 0.555306
0.892332 0.632576 0.294856
0.371092 0.062503 0.725753
0.181599 0.323201 0.335006
0.286125 0.620201 0.933131
0.357423 0.807965 0.479120
