x y z
-0.800060 -0.654498 0.537241
-0.096311 -0.046557 0.785839
-0.690235 -0.976760 0.630987
-0.404397 -0.608314 0.582524
-0.187894 -0.071654 0.304829
-0.528733 -0.150243 0.268343
-0.541686 -0.677903 0.695931
-0.504761 -0.994721 0.643023
-0.347878 -0.297205 0.371273
-0.291433 -0.657369 0.214246
-0.250106 -0.134840 0.243028
-0.147291 -0.054495 0.959618
-0.229943 -0.545824 0.501559
-0.532727 -0.314152 0.504329
-0.533344 -0.194174 0.446470
-0.367164 -0.999714 0.571152
-0.036263 -0.123939 0.181224
-0.235056 -0.172333 0.090534
-0.254208 -0.298884 0.255499
-0.268327 -0.455656 0.373691
-0.641259 -0.765275 0.642778
-0.040714 -0.027910 0.709594
-0.170992 -0.750982 0.411995
-0.924470 -0.268358 0.337229
-0.333842 -0.474991 0.876176
-0.961105 -0.730645 0.308782
-0.398433 -0.653414 0.428201
-0.012148 -0.188415 0.710768
-0.524157 -0.288041 0.862445
-0.072930 -0.906901 0.049879
-0.407794 -0.670914 0.574104
-0.687619 -0.359018 0.763312
-0.304228 -0.817374 0.351787
-0.047016 -0.985508 0.159124
-0.713046 -0.205385 0.973186
-0.287130 -0.924020 0.052533
-0.116426 -0.684892 0.716405
-0.908412 -0.413405 0.453041
-0.366060 -0.388040 0.891908
-0.286047 -0.741104 0.465555
-0.979429 -0.279205 0.000912
-0.700560 -0.448120 0.182469
-0.794477 -0.568199 0.597069
-0.699961 -0.855467 0.158976
-0.127668 -0.380651 0.921943
-0.906611 -0.852171 0.673338
-0.643298 -0.514248 0.928484
-0.654309 -0.156886 0.150053
-0.112065 -0.171802 0.417443
-0.429490 -0.047259 0.204377
-0.353431 -0.594055 0.403898
-0.356767 -0.871970 0.480807
-0.915288 -0.403901 0.716157
-0.525420 -0.660835 0.809481
-0.999761 -0.546237 0.480869
-0.671316 -0.374154 0.762829
-0.135045 -0.554197 0.203301
-0.687541 -0.871333 0.884017
-0.530773 -0.198695 0.504237
-0.510806 -0.615754 0.778705
-0.797421 -0.196698 0.223545
-0.932183 -0.481498 0.154135
-0.955354 -0.530402 0.498489
-0.419222 -0.808878 0.614140
-0.655268 -0.947061 0.676119
-0.913031 -0.346313 0.630183
-0.454472 -0.539955 0.351147
-0.011398 -0.027114 0.263209
-0.316976 -0.722675 0.619834
-0.573721 -0.044999 0.972412
-0.830072 -0.268556 0.726646
-0.719580 -0.349204 0.564532
-0.539399 -0.437892 0.405271
-0.413654 -0.170811 0.525791
-0.744077 -0.313345 0.953492
-0.815815 -0.583016 0.163262
-0.892003 -0.935765 0.272193
-0.105067 -0.462750 0.736625
-0.963013 -0.579126 0.986980
-0.413961 -0.034717 0.790483
-0.894578 -0.548585 0.838034
-0.345235 -0.511659 0.539718
-0.100021 -0.131752 0.295512
-0.886712 -0.400420 0.038105
-0.138563 -0.114772 0.543895
-0.756973 -0.305107 0.488726
-0.609766 -0.479808 0.357829
-0.344919 -0.154006 0.922877
-0.307007 -0.771559 0.504652
-0.410384 -0.669946 0.048516
-0.785641 -0.796560 0.756098
-0.279566 -0.036762 0.107715
-0.581459 -0.125765 0.086133
-0.005716 -0.606619 0.559485
-0.147335 -0.520855 0.044682
-0.606569 -0.089891 0.349026
-0.453510 -0.548407 0.263265
-0.482710 -0.914040 0.603621
-0.068338 -0.946439 0.501325
-0.612255 -0.803264 0.308839
-0.423091 -0.132641 0.338475
-0.942992 -0.952262 0.727777
-0.549792 -0.425290 0.076275
-0.342158 -0.549349 0.830221
-0.166007 -0.656623 0.321620
-0.934441 -0.652284 0.784083
-0.869589 -0.901520 0.786251
-0.823547 -0.249021 0.515126
-0.928037 -0.747710 0.618424
-0.520166 -0.603850 0.354457
-0.815748 -0.995702 0.246763
-0.365205 -0.085202 0.093436
-0.991884 -0.351598 0.627181
-0.026242 -0.996168 0.339401
-0.817878 -0.649729 0.105578
-0.645654 -0.267658 0.029010
-0.008963 -0.511153 0.518709
-0.226203 -0.118930 0.586538
-0.098185 -0.082597 0.460524
-0.006861 -0.503352 0.500043
-0.672226 -0.727058 0.986256
-0.627412 -0.568695 0.336593
-0.403293 -0.624782 0.347258
-0.273918 -0.975741 0.808476
-0.219500 -0.248588 0.181916
-0.261374 -0.534988 0.736878
-0.677482 -0.224226 0.322895
-0.534267 -0.137599 0.901491
-0.390772 -0.218619 0.157129
-0.595713 -0.721011 0.348097
-0.135698 -0.785841 0.153020
-0.555745 -0.747706 0.450762
-0.749430 -0.720310 0.960145
-0.182403 -0.346341 0.308129
-0.979256 -0.268962 0.649818
-0.801445 -0.198620 0.668631
-0.286371 -0.542345 0.490352
-0.942138 -0.383079 0.884352
-0.647809 -0.722589 0.840403
-0.131509 -0.445563 0.547316
-0.507959 -0.704468 0.879808
-0.882211 -0.752960 0.064224
-0.120065 -0.429277 0.454659
-0.649693 -0.393790 0.093678
-0.824266 -0.356111 0.559064
-0.831559 -0.192487 0.800670
-0.189159 -0.107661 0.062062
-0.496293 -0.568937 0.988836
-0.879511 -0.573213 0.356146
-0.553562 -0.922527 0.022530
-0.991895 -0.117652 0.594793
-0.730232 -0.210260 0.594901
-0.848549 -0.063554 0.569116
-0.938446 -0.144192 0.063329
-0.352447 -0.334566 0.571869
-0.822963 -0.041706 0.464586
-0.184164 -0.961571 0.849312
-0.413927 -0.609709 0.021172
-0.993291 -0.602562 0.949978
-0.811745 -0.242981 0.011631
-0.551856 -0.703968 0.937983
-0.730231 -0.940825 0.587553
-0.964343 -0.331432 0.100797
-0.549002 -0.306747 0.518725
-0.436492 -0.295705 0.863276
-0.630908 -0.183261 0.983948
-0.526889 -0.202792 0.430618
-0.011956 -0.762820 0.448548
-0.885195 -0.509472 0.311705
-0.345525 -0.331925 0.242230
-0.152309 -0.881852 0.716483
-0.905175 -0.451947 0.076818
-0.200904 -0.363680 0.210094
-0.628729 -0.257700 0.960277
-0.216513 -0.438540 0.790166
-0.798901 -0.475151 0.560260
-0.197157 -0.654281 0.323736
-0.493455 -0.081820 0.204096
-0.539232 -0.374003 0.560646
-0.951852 -0.294982 0.091351
-0.172005 -0.931483 0.051624
-0.563155 -0.737389 0.077693
-0.431423 -0.047067 0.419356
-0.408787 -0.745529 0.104856
-0.480417 -0.806441 0.814360
-0.992918 -0.384623 0.149787
-0.605664 -0.309902 0.588922
-0.962096 -0.126984 0.223770
-0.235015 -0.882913 0.806030
-0.002798 -0.089248 0.116746
-0.561154 -0.856329 0.624265
-0.335027 -0.863116 0.097403
-0.447323 -0.005524 0.883982
-0.803700 -0.209677 0.728019
-0.025011 -0.378303 0.393627
-0.953979 -0.658833 0.789516
-0.844804 -0.570570 0.658618
-0.502249 -0.945671 0.647233
-0.610165 -0.744749 0.008599
-0.539633 -0.678147 0.364829
