x y z
-0.279406 -0.796551 0.501884
-0.192550 -0.557625 0.273195
-0.977187 -0.810543 0.321786
-0.925811 -0.346864 0.740877
-0.079804 -0.000017 0.696697
-0.609833 -0.466148 0.871987
-0.224326 -0.965182 0.708476
-0.913404 -0.656283 0.862108
-0.677680 -0.391957 0.351941
-0.070477 -0.825170 0.468959
-0.051650 -0.273385 0.944840
-0.698146 -0.837351 0.518067
-0.974093 -0.088204 0.236141
-0.358615 -0.039834 0.947620
-0.627176 -0.354163 0.344564
-0.507622 -0.040867 0.732096
-0.430237 -0.675155 0.451188
-0.192245 -0.160428 0.365423
-0.706491 -0.311709 0.663609
-0.611171 -0.424728 0.872378
-0.862767 -0.811016 0.740226
-0.983693 -0.355604 0.454514
-0.796752 -0.743320 0.831157
-0.763642 -0.288481 0.312188
-0.346519 -0.794806 0.520726
-0.658719 -0.902419 0.601500
-0.695545 -0.774053 0.219858
-0.770457 -0.223088 0.975027
-0.890896 -0.620309 0.973703
-0.208330 -0.497586 0.935915
-0.386384 -0.033076 0.758540
-0.973998 -0.537741 0.974900
-0.564141 -0.370810 0.705774
-0.411905 -0.736898 0.476680
-0.703380 -0.385477 0.618030
-0.564983 -0.567954 0.161818
-0.838211 -0.606587 0.754663
-0.256929 -0.125455 0.986488
-0.180369 -0.812587 0.360943
-0.566142 -0.888958 0.049839
-0.191337 -0.242380 0.525966
-0.532248 -0.720530 0.686276
-0.288689 -0.058849 0.593669
-0.007333 -0.352261 0.002378
-0.216136 -0.952383 0.118349
-0.619480 -0.000388 0.826714
-0.109311 -0.531620 0.425809
-0.263825 -0.547941 0.926054
-0.740741 -0.764022 0.907204
-0.655632 -0.949480 0.181682
-0.189138 -0.317371 0.550342
-0.938413 -0.610457 0.304561
-0.197271 -0.104112 0.340306
-0.974587 -0.733102 0.570257
-0.672633 -0.791766 0.123742
-0.911118 -0.960968 0.884976
-0.345056 -0.386573 0.269417
-0.670110 -0.749922 0.055580
-0.424401 -0.962043 0.469543
-0.331312 -0.183427 0.197397
-0.829839 -0.208730 0.079878
-0.857401 -0.220476 0.201955
-0.237283 -0.766929 0.540470
-0.151018 -0.808900 0.379500
-0.505404 -0.493969 0.737968
-0.734702 -0.994163 0.330111
-0.419074 -0.418642 0.193012
-0.103105 -0.163268 0.127265
-0.553402 -0.992817 0.971213
-0.726752 -0.540320 0.137358
-0.272797 -0.757498 0.358766
-0.237838 -0.566815 0.765240
-0.456194 -0.716787 0.436812
-0.740785 -0.762831 0.461112
-0.680517 -0.154337 0.359196
-0.520002 -0.944596 0.048546
-0.743872 -0.390942 0.923347
-0.754700 -0.523071 0.924116
-0.267270 -0.475048 0.376494
-0.087837 -0.681278 0.044435
-0.844750 -0.147693 0.119665
-0.134558 -0.139276 0.986836
-0.597716 -0.735822 0.640827
-0.649579 -0.396754 0.908789
-0.956558 -0.056940 0.085996
-0.791338 -0.351830 0.264803
-0.397241 -0.223256 0.491422
-0.722454 -0.733132 0.674323
-0.940440 -0.190174 0.424316
-0.850967 -0.474740 0.718401
-0.024680 -0.794262 0.595342
-0.952978 -0.479133 0.959908
-0.324284 -0.413835 0.463262
-0.449168 -0.639961 0.046440
-0.286157 -0.432151 0.705918
-0.956658 -0.143109 0.089157
-0.464500 -0.220797 0.893853
-0.244530 -0.974321 0.233119
-0.334736 -0.017652 0.241893
-0.760679 -0.669215 0.605112
-0.024550 -0.732468 0.959371
-0.412596 -0.004041 0.047058
-0.857360 -0.661706 0.030309
-0.066526 -0.433914 0.448710
-0.681634 -0.298174 0.601313
-0.515180 -0.732027 0.822945
-0.512439 -0.068433 0.853602
-0.991354 -0.631101 0.015755
-0.811031 -0.715784 0.635775
-0.304972 -0.109828 0.274554
-0.015904 -0.144114 0.577784
-0.801276 -0.815012 0.187249
-0.761916 -0.904661 0.197468
-0.426098 -0.721534 0.672047
-0.813942 -0.231695 0.441042
-0.294287 -0.869199 0.990789
-0.998788 -0.496799 0.530163
-0.869583 -0.712539 0.310645
-0.130595 -0.745338 0.097139
-0.255809 -0.926756 0.662291
-0.295913 -0.332709 0.226232
-0.591122 -0.118374 0.660602
-0.308849 -0.650853 0.182667
-0.386950 -0.739977 0.475306
-0.849064 -0.351182 0.031079
-0.852544 -0.593809 0.502650
-0.054069 -0.012777 0.769203
-0.373493 -0.081339 0.136466
-0.180359 -0.302702 0.685592
-0.581256 -0.372025 0.525853
-0.620681 -0.434377 0.280313
-0.640492 -0.664412 0.825240
-0.366780 -0.690086 0.392672
-0.049918 -0.218144 0.617881
-0.192557 -0.837651 0.603462
-0.373563 -0.493446 0.609672
-0.159605 -0.943871 0.756406
-0.116639 -0.653371 0.075514
-0.629043 -0.690753 0.072751
-0.713895 -0.180477 0.840599
-0.767122 -0.880160 0.351084
-0.421399 -0.831031 0.703227
-0.879698 -0.161746 0.863619
-0.953684 -0.743641 0.565013
-0.264115 -0.876802 0.455555
-0.269653 -0.192558 0.800918
-0.122164 -0.181448 0.622768
-0.820244 -0.586274 0.455094
-0.277991 -0.158282 0.731011
-0.419330 -0.289012 0.458559
-0.901939 -0.147245 0.412223
-0.005273 -0.609422 0.889827
-0.316342 -0.817191 0.301252
-0.948476 -0.681400 0.057898
-0.258564 -0.720409 0.162353
-0.108307 -0.532671 0.341917
-0.548957 -0.775993 0.254026
-0.403010 -0.205645 0.052397
-0.759903 -0.166338 0.821899
-0.018725 -0.282332 0.931981
-0.759697 -0.433834 0.824914
-0.647948 -0.737798 0.296109
-0.977804 -0.484390 0.774468
-0.842839 -0.095202 0.272205
-0.302533 -0.792870 0.530679
-0.727443 -0.183745 0.213375
-0.037994 -0.498052 0.580747
-0.540405 -0.123378 0.883709
-0.400998 -0.242231 0.731209
-0.160731 -0.393837 0.921585
-0.935749 -0.227788 0.640762
-0.461292 -0.526468 0.046317
-0.864894 -0.136224 0.326376
-0.617944 -0.996143 0.599333
-0.437471 -0.579281 0.649956
-0.229955 -0.013600 0.442895
-0.896680 -0.091965 0.997164
-0.176233 -0.813667 0.918046
-0.788445 -0.991934 0.319543
-0.872567 -0.227088 0.378732
-0.446754 -0.275794 0.797121
-0.753084 -0.496495 0.577773
-0.628891 -0.346659 0.541607
-0.743617 -0.969293 0.948772
-0.188682 -0.050824 0.898995
-0.993579 -0.689581 0.672440
-0.761639 -0.080277 0.431616
-0.388589 -0.157464 0.603962
-0.685539 -0.422360 0.837132
-0.908082 -0.657224 0.847161
-0.464357 -0.461957 0.977630
-0.615900 -0.809419 0.617075
-0.744603 -0.613348 0.931338
-0.877523 -0.698485 0.303353
-0.511060 -0.714594 0.427413
-0.268345 -0.358830 0.819445
-0.045746 -0.252272 0.301413
-0.559603 -0.616710 0.425638
-0.904231 -0.912571 0.107214
-0.300467 -0.921687 0.179266
