x y z
-0.353459 -0.885516 0.466844
-0.047049 -0.754965 0.192066
-0.759501 -0.357260 0.576439
-0.911542 -0.041455 0.756324
-0.853842 -0.675357 0.106606
-0.858918 -0.495041 0.656528
-0.651499 -0.674080 0.600378
-0.428032 -0.734717 0.881293
-1.004315 -0.170205 0.838686
-1.017806 -0.800120 0.960812
-0.753092 -0.316609 0.292039
-0.911907 -0.012426 0.290269
-0.124660 -0.097323 0.561656
-0.790778 -0.593734 0.793786
-0.265472 -0.460263 0.896633
-0.820858 -0.369099 0.873059
-0.930171 -0.681776 0.315940
-0.814610 -0.726594 0.259739
-0.135290 -0.802742 0.398973
-0.556693 -0.118818 0.382870
-0.317685 -0.442878 0.806859
-0.954744 -0.681648 0.296419
-0.995650 -0.927626 0.143951
-0.334130 -0.250782 0.713455
-0.060554 -0.763363 0.168416
-0.992804 -0.624805 0.218013
-0.928319 -0.936519 0.950435
-0.315428 -0.334135 0.787036
-0.915639 -0.646804 0.558342
-0.960692 -0.635026 0.060295
-0.226808 -0.026266 0.024903
-0.252944 -0.378822 0.257777
-0.887517 -0.710463 0.848532
-0.536044 -0.227183 0.827963
-0.658648 -0.280366 0.486666
-0.877538 -0.767217 0.217004
-0.981698 -0.624876 0.648687
-0.355371 -0.908140 1.014446
-0.086352 -0.369123 0.478972
-0.791017 -0.494494 0.776459
-0.792504 -0.184740 0.306686
-0.835504 -0.206948 0.543978
-0.360957 -0.865899 0.826213
-0.953020 -0.136821 0.701660
-0.127746 -0.423778 0.004731
-0.219058 -0.318496 0.731862
-0.713122 -0.619238 0.201138
-0.319348 -0.022017 0.477311
-0.420053 -0.644973 0.087454
-0.558636 -0.996836 0.767713
-0.674648 -0.591368 0.045553
-0.177129 -0.395207 0.369401
-0.767788 -0.347608 0.434818
-0.461101 -0.971540 0.700096
-0.935268 -0.494147 0.711300
-0.241300 -0.594280 0.437769
-0.026095 -0.581333 0.023640
-0.058934 -0.404855 0.329638
-0.639107 -0.535635 0.965717
-0.491556 -0.498182 0.808373
-0.790499 -0.274593 0.538586
-0.111557 -0.467436 0.079492
-0.845273 -0.433875 0.733906
-0.122072 -0.612366 0.330945
-0.873260 -0.750789 0.914571
-0.755210 -0.238512 0.860868
-0.786725 -0.923510 0.762976
-0.193243 -0.679989 0.151093
-0.110724 -0.290831 0.177563
-0.746728 -0.912872 0.655502
-0.820479 -0.464871 0.627118
0.005648 -0.762092 0.021154
-0.395090 -0.147107 0.448526
-0.264036 -0.359168 0.545830
-0.778400 -0.444322 0.103800
-0.676987 -0.546976 0.642828
-0.064526 -0.271692 0.256271
-0.793219 -0.338067 0.811990
-0.353357 -0.534135 0.022241
-0.618745 -1.004519 0.912700
-0.023439 -0.899668 0.351190
-0.269938 -0.820006 0.393592
-0.155801 -0.798812 0.839532
-0.217653 -0.207496 0.957875
-0.581276 -0.756274 0.254268
-0.809728 -0.017361 0.856218
-0.197800 -0.123153 0.925745
-0.717645 -0.544601 0.986891
-0.133848 -0.608923 0.039390
-0.978590 -0.224558 0.796901
-0.838795 -0.278255 0.955051
-0.343001 -0.787142 0.185340
-0.733965 -0.088620 0.762005
-0.357882 -0.653506 0.128313
-0.778126 -0.821348 0.609150
-0.420074 -0.661498 0.970763
-0.714749 -0.318244 0.458387
-0.035815 -0.429754 1.001249
-0.835549 -0.071889 0.919931
-0.255783 -0.059740 0.126354
-0.882096 -0.559157 0.678024
-0.528345 -0.542409 0.797197
-0.384399 -0.868098 0.615521
-0.903081 -0.168736 0.051385
-0.610648 -0.757774 0.840141
-0.598717 -0.118156 0.279382
-0.841718 -0.059181 0.123279
-0.496254 -0.732010 0.383102
-0.448879 -0.778181 0.281396
-0.798590 -0.249970 0.744406
-0.887996 -0.636599 0.161662
-0.621419 -0.540675 0.133285
-0.807725 -0.388661 0.037929
-0.096177 -0.391624 0.035232
-0.674007 -0.737109 0.519603
-0.977612 -0.463299 0.918293
-0.296051 -0.363241 0.268742
-0.953506 -0.368955 0.910367
-0.252411 -0.864817 0.669564
-0.551482 0.003315 0.219904
-0.176504 -0.231248 0.513548
-0.135562 -0.193577 0.176915
-0.798063 -0.082660 0.800288
-0.260984 -0.434230 0.492460
-0.946961 -0.215944 0.174581
-0.908006 -0.384538 0.213941
-0.575030 -0.443783 0.403094
-0.114547 -0.107580 0.518070
-0.088137 -0.132383 0.103224
-0.907159 -0.829845 0.470162
-0.635404 -0.893418 0.651196
-0.742145 -0.987979 0.724273
-0.088041 -0.391549 0.853807
-0.703646 -0.398971 0.071542
-0.330294 -0.977064 0.346796
-0.105087 -0.732509 0.499020
-0.395703 -0.431523 0.169495
-0.189528 -0.968104 0.052937
-0.196626 -0.203224 0.786170
-0.882411 -0.344352 0.289905
-0.695966 -0.383129 0.144199
-0.525576 -0.980486 0.075382
-0.315748 -0.690884 0.286234
-0.735504 -0.415873 0.530917
-0.588990 -0.467025 0.502816
-0.397658 -0.571102 0.156334
-0.858286 -0.118463 0.802723
-0.884923 -0.419373 0.527318
-0.714719 -0.782066 0.011466
-1.001787 -0.302302 0.288526
-0.780855 -0.119201 0.543326
-0.912015 -0.173419 0.070926
-0.361443 -0.844725 0.729039
-0.651363 -0.318857 0.311959
-0.060146 -0.211581 0.777243
-0.700776 -0.876028 0.440306
-0.743617 -0.279078 0.461316
-0.769561 -0.590744 0.544633
-0.863728 -0.656866 0.052859
-0.446381 -0.665413 0.974724
-0.170853 -0.322815 0.597376
-0.321538 -0.635312 0.775363
-1.015464 -0.489817 0.064016
-0.346883 -0.620211 0.269502
-0.923382 -0.846352 0.703383
-0.741166 -0.956749 0.720833
-0.925662 -0.190378 0.461954
-0.576879 -0.591313 0.857734
-0.892385 -0.314129 0.193550
-0.166379 -0.510409 0.275829
-0.095955 -0.535056 0.329980
-0.456065 -0.655293 0.770187
-0.371968 -0.808810 0.426956
-0.633878 -0.813047 0.851579
-0.244378 -0.162833 0.315067
-0.357138 -0.605382 0.748960
-0.507847 -0.679497 0.351493
-0.053177 -0.146520 0.581659
-0.318928 -0.269832 0.330531
-0.893253 -0.064734 0.456085
-0.516737 -0.993098 0.937555
-0.506823 -0.913268 0.799599
-0.845195 -0.787910 0.640601
-0.043651 -0.551401 0.155222
-0.957701 -0.159408 0.054991
-0.059632 -0.952826 0.062200
-0.707847 -0.798558 0.524485
-0.509770 -0.932654 0.867491
-0.875943 -0.695404 0.904006
-0.204974 -0.605874 0.661306
-0.210624 -0.009720 0.162908
-0.430554 -0.727023 0.705301
-0.643856 -0.935560 0.188233
-0.585230 -0.014750 0.157335
-0.889374 -0.565306 0.779794
-0.901440 -0.291724 0.255019
-0.520623 -0.112649 0.143779
-0.089696 -0.747293 0.695313
-0.682558 -0.591281 0.761752
-0.127600 -0.166546 0.676924
