x y z
-0.767249 -0.410123 0.005410
-0.993007 -0.776868 0.594418
-0.580591 -0.695275 0.404492
-0.668735 -0.800260 0.631076
-0.456636 -0.914573 0.851108
-0.491060 -0.339003 0.907605
-0.726072 -0.932394 0.138152
-0.232084 -0.217657 0.736315
-0.291097 -0.919449 0.741433
-0.460522 -0.966292 0.166710
-0.119500 -0.083886 0.262287
-0.893796 -0.420071 0.179783
-0.183091 -0.611755 0.050967
-0.206880 -0.366043 0.806089
-0.586811 -0.101218 0.480758
-0.807335 -0.261398 0.283206
-0.853875 -0.987283 0.963010
-0.046424 -0.975483 0.751637
-0.271546 -0.145614 0.138827
-0.567000 -0.945562 0.109731
-0.290597 -0.614932 0.805559
-0.799729 -0.730169 0.141178
-0.044499 -0.000984 0.309867
-0.643509 -0.818059 0.818252
-0.684698 -0.180584 0.795690
-0.482790 -0.872498 0.637241
-0.323331 -0.873796 0.631783
-0.357668 -0.348594 0.919763
-0.767179 -0.304614 0.157933
-0.860465 -0.042626 0.706808
-0.240051 -0.170787 0.252997
-0.483968 -0.606184 0.064962
-0.858964 -0.537011 0.541799
-0.223162 -0.837707 0.069129
-0.399154 -0.564188 0.704225
-0.317557 -0.091697 0.017031
-0.293808 -0.254645 0.609083
-0.503087 -0.610676 0.274125
-0.055441 -0.256715 0.374776
-0.115775 -0.490127 0.323525
-0.260973 -0.167352 0.422713
-0.167395 -0.353816 0.485673
-0.715824 -0.781188 0.369475
-0.085742 -0.592345 0.178224
-0.424304 -0.263942 0.243736
-0.976129 -0.861395 0.303147
-0.631617 -0.065813 0.975144
0.002217 -0.539417 0.661802
-0.474160 -0.058828 0.964279
-0.294827 -0.116915 0.311761
-0.744213 -0.511786 0.893416
-0.973035 -0.538097 0.040703
-0.015909 -0.561540 0.339552
-0.306665 -0.812475 0.374556
-0.693173 -0.182804 0.770439
-0.564459 -0.878378 0.782010
-0.817394 -0.330351 0.943912
-0.774530 -0.076062 0.292629
-0.881936 -0.875092 0.102793
-0.968748 -0.746705 0.861096
-0.364828 -0.588531 0.918081
-0.588431 -0.887874 0.981103
-0.709902 -0.489629 0.739349
-0.392347 -0.059781 0.127255
-0.746685 -0.945116 0.112791
-0.473049 -0.903087 0.718666
-0.262573 -0.219290 0.405920
-0.308287 -0.964511 0.354947
-0.980392 -0.079941 0.965895
-0.712031 -0.971713 0.658168
-0.396558 -0.265070 0.795670
-0.889834 -0.452581 0.914350
-0.236005 -0.500777 0.455030
-0.082110 -0.490879 0.827511
-0.432616 -0.111752 0.798620
-0.061597 -0.356958 0.079279
-0.816764 -0.080416 0.255385
-0.871424 -0.026580 0.028277
-0.721493 -0.841424 0.223747
-0.369337 -0.064614 0.473577
-0.155274 -0.607892 0.610069
-0.705743 -0.386198 0.171997
-0.722148 -0.612555 0.150936
-0.253564 -0.897689 0.499166
-0.731972 -0.648814 0.297794
-0.833108 -0.762112 0.816318
-0.022999 -0.726870 0.800375
-0.417296 -0.326292 0.797505
-0.132772 -0.549339 0.228973
-0.929212 -0.095490 0.800064
-0.633021 -0.987286 0.923739
-0.211647 -0.211691 0.671001
-0.804528 -0.571072 0.936894
-0.024245 -0.042552 0.030221
-0.324362 -0.659838 0.633804
-0.259581 -0.282500 0.310290
-0.017298 -0.582997 0.699872
-0.161850 -0.340534 0.386367
-0.840639 -0.258346 0.983156
-0.219266 -0.850571 0.454695
-0.113705 0.001812 0.789421
-0.525768 -0.825578 0.861103
-0.564187 -0.863302 0.817348
-0.675610 -0.254226 0.688943
-0.959487 -0.630804 0.944322
-0.976638 -0.721752 0.161657
-0.567312 -0.638796 0.372620
-0.332002 -0.963804 0.374586
-0.358175 -0.324479 0.269724
-0.320171 -0.095573 0.068313
-0.398283 -0.529055 0.791966
-0.984603 -0.027399 0.636220
-1.001505 -0.073575 0.341421
-0.988261 -0.318518 0.040748
-0.693392 -0.459791 0.767462
-0.898953 -0.720999 0.581645
-0.532492 -0.014122 0.050987
-0.271229 -0.837525 0.841675
-0.707787 -0.825099 0.539478
-0.941474 -0.070705 0.140427
-0.649017 -0.127801 0.340455
-0.422266 -0.917989 0.275385
-0.931865 -0.278014 0.198103
-0.116402 -0.787952 0.989730
-0.718607 -0.132299 0.386387
-0.684329 -0.726740 0.360236
-0.603421 -0.236248 0.506319
-0.905924 -0.391318 0.405032
-0.736014 -0.363854 0.009253
-0.576390 -0.008803 0.051823
-0.565018 -0.444304 0.985930
-0.345540 -0.495663 0.068418
-0.920616 -0.118404 0.455713
-0.353757 -0.195251 0.977516
-0.966547 -0.788875 0.996644
-0.663737 -0.111457 0.318459
-0.452922 -0.709241 0.315003
-0.749190 -0.090152 0.213511
-0.709086 -0.328003 0.866038
-0.238994 -0.360037 0.806964
-0.573649 -0.234860 0.273401
-0.521930 -0.322783 0.867527
-0.098378 -0.457743 0.409189
-0.733179 -0.325179 0.645646
-0.247244 -0.973819 0.011920
-0.245258 -0.717410 0.179164
-0.505221 -0.121064 0.081046
-0.815624 -0.457669 0.382497
-0.549695 -0.867169 0.348522
-0.758439 -0.351167 0.969472
-0.874552 -0.852939 0.956460
-0.019669 -0.088517 0.679924
-0.087692 -0.404444 0.679901
-0.142970 -0.556239 0.200387
-0.184264 -0.845143 0.434944
-0.601670 -0.308826 0.713973
-0.852500 -0.138353 0.534171
-0.164163 -0.156140 0.622757
-0.633941 -0.023564 0.161998
-0.002126 -0.286459 0.752584
-0.824496 -0.337941 0.448567
-0.672039 -0.726127 0.765503
-0.626199 -0.481484 0.825154
-0.107420 -0.915106 0.162830
-0.152465 -0.710084 0.067628
-0.696568 -0.576446 0.674764
-0.018418 -0.953960 0.153396
-0.092658 -0.328552 0.544608
-0.132150 -0.563414 0.736406
-0.468615 -0.020413 0.867304
-0.951242 -0.953523 0.666840
-0.805732 -0.892373 0.273838
-0.581054 -0.710867 0.570764
-0.596670 -0.589197 0.533291
-0.742974 -0.166527 0.584559
-0.783816 -0.520804 0.311500
-0.548870 -0.311523 0.323924
-0.849491 -0.602955 0.952636
-0.609898 -0.583650 0.722794
-0.713306 -0.115665 0.488616
-0.525111 -0.444243 0.419086
-0.879288 -0.247810 0.768996
-0.164386 -0.337309 0.323900
-0.276217 -0.868084 0.475479
-0.905517 -0.322109 0.728491
-0.534184 -0.418804 0.225875
-0.390146 -0.069635 0.112062
-0.179355 -0.170088 0.125914
-0.531985 -0.533749 0.176915
-0.098384 -0.338864 0.063782
-0.242471 -0.881705 0.319174
-0.550898 -0.240348 0.826740
-0.282835 -0.880744 0.137174
-0.530501 -0.142991 0.568733
-0.640619 -0.238652 0.791544
-0.598238 -0.480626 0.577463
-0.857653 -0.842144 0.694904
-0.580365 -0.163654 0.630315
-0.725576 -0.501639 0.705699
-0.302716 -0.411423 0.131774
