x y z
-0.085290 0.440639 0.685175
-0.881359 0.341418 0.858271
-0.677306 0.718200 0.370422
-0.494913 0.707279 0.842306
-0.630385 0.442121 0.004953
-0.972922 0.625755 0.865303
-0.537569 0.438496 0.081937
-0.032229 0.614331 0.753719
-0.717754 0.554573 0.356782
-0.441227 0.117815 0.105951
-0.131296 0.897970 0.865456
-0.858586 0.687155 0.866015
-0.972667 0.277564 0.934048
-0.207496 0.684621 0.005587
-0.938843 0.121008 0.499082
-0.064096 0.776178 0.544892
-0.667967 0.979765 0.767437
-0.180877 0.808646 0.047762
-0.319676 0.747135 0.397323
-0.115703 0.243409 0.368357
-0.171746 0.728781 0.148233
-0.759231 0.857922 0.822828
-0.612962 0.063130 0.725407
-0.868847 0.514886 0.097347
-0.377385 0.444876 0.019328
-0.632405 0.835455 0.558896
-0.345202 0.316130 0.189452
-0.417439 0.196839 0.284975
-0.089442 0.199374 0.431006
-0.070116 0.893240 0.011694
-0.896686 0.469783 0.380792
-0.301600 0.217484 0.465271
-0.275916 0.424451 0.892713
-0.895404 0.909991 0.357144
-0.751023 0.489553 0.483201
-0.807435 0.749134 0.802153
-0.231592 0.844065 0.479284
-0.844505 0.037082 0.979625
-0.608222 0.600754 0.978319
-0.834887 0.747232 0.897145
-0.913634 0.725608 0.151610
-0.914982 0.786434 0.190257
-0.712835 0.866957 0.002237
-0.959457 0.634827 0.947146
-0.826315 0.407111 0.015064
-0.064227 0.977862 0.627075
-0.356569 0.781774 0.067141
-0.337800 0.852926 0.134860
-0.707667 0.142402 0.888625
-0.612050 0.135443 0.305969
-0.384064 0.761463 0.666440
-0.799828 0.644096 0.308893
-0.954868 0.850155 0.227441
-0.910827 0.674368 0.291499
-0.494533 0.655334 0.132423
-0.324426 0.008779 0.436241
-0.124352 0.607387 0.062183
-0.960709 0.045758 0.157075
-0.681503 0.959708 0.852394
-0.770405 0.869280 0.161927
-0.592944 0.433912 0.759022
-0.429552 0.956259 0.150320
-0.188274 0.742055 0.749337
-0.293214 0.561622 0.114385
-0.017505 0.751257 0.342961
-0.421017 0.436111 0.128162
-0.635798 0.498164 0.685561
-0.154459 0.727566 0.464463
-0.995276 0.920360 0.600698
-0.670703 0.650767 0.348181
-0.353361 0.199368 0.993071
-0.884942 0.153676 0.954996
-0.051161 0.435043 0.023124
-0.921910 0.387194 0.110569
-0.192306 0.715751 0.319482
-0.164813 0.548894 0.544720
-0.593634 0.549667 0.693362
-0.881691 0.285167 0.785532
-0.379293 0.233936 0.844235
-0.623383 0.932534 0.082728
-0.459147 0.452519 0.060619
-0.498602 0.682801 0.087451
-0.326062 0.863941 0.615949
-0.853813 0.856657 0.959045
-0.908914 0.598857 0.236344
-0.847639 0.556097 0.431792
-0.942748 0.550770 0.299685
-0.929832 0.809759 0.524384
-0.800707 0.189941 0.845265
-0.993193 0.296593 0.167685
-0.785824 0.756065 0.006912
-0.965197 0.769290 0.418856
-0.011444 0.753882 0.208570
-0.482548 0.296295 0.043525
-0.179941 0.012092 0.400732
-0.683221 0.796582 0.788549
-0.881454 0.183760 0.005862
-0.188958 0.013355 0.624057
-0.639353 0.259635 0.907039
-0.867525 0.740550 0.441167
-0.739761 0.157358 0.010114
-0.015969 0.173475 0.863608
-0.032574 0.590056 0.729090
-0.112748 0.804623 0.220853
-0.633134 0.822752 0.682240
-0.807980 0.293790 0.922580
-0.670369 0.589360 0.101749
-0.237190 0.068729 0.263854
-0.508205 0.695451 0.053767
-0.033570 0.624282 0.193982
-0.124614 0.508119 0.687484
-0.688277 0.090876 0.815319
-0.077985 0.996661 0.527423
-0.145340 0.967548 0.853894
-0.320712 0.019486 0.964487
-0.588121 0.493375 0.278605
-0.316999 0.595859 0.507381
-0.486680 0.050555 0.407890
-0.108106 0.975539 0.406384
-0.054349 0.745393 0.099471
-0.437382 0.020714 0.175656
-0.120281 0.350596 0.317137
-0.864733 0.649957 0.943504
-0.180819 0.910394 0.195732
-0.661040 0.266924 0.534794
-0.957250 0.714670 0.235373
-0.061572 0.235568 0.797660
-0.778500 0.270134 0.117907
-0.616427 0.893218 0.291318
-0.771255 0.600652 0.414718
-0.491903 0.224894 0.221334
-0.774630 0.217242 0.062407
-0.216182 0.079188 0.882104
-0.528031 0.491677 0.605658
-0.002907 0.704287 0.490425
-0.724551 0.300808 0.275457
-0.155121 0.274248 0.493783
-0.320559 0.310389 0.022257
-0.487481 0.970674 0.276378
-0.717025 0.860311 0.393710
-0.380132 0.874596 0.307394
-0.249878 0.670245 0.034502
-0.624288 0.985787 0.983311
-0.659140 0.978174 0.929324
-0.294218 0.311034 0.507184
-0.870435 0.987399 0.405056
-0.354173 0.153379 0.802699
-0.305902 0.571949 0.857033
-0.537984 0.723403 0.501829
-0.049917 0.346216 0.831056
-0.179709 0.452659 0.849255
-0.334704 0.139361 0.233366
-0.908276 0.859324 0.005531
-0.737195 0.301921 0.141825
-0.473918 0.524950 0.239286
-0.634944 0.133725 0.926900
-0.867426 0.090478 0.104079
-0.075240 0.136484 0.545430
-0.978471 0.003649 0.447985
-0.246708 0.011263 0.288826
-0.798915 0.738425 0.382854
-0.214365 0.050238 0.374419
-0.751945 0.385674 0.380810
-0.928818 0.277387 0.317346
-0.003292 0.330517 0.882265
-0.935933 0.934959 0.799616
-0.727116 0.983730 0.159001
-0.220714 0.881784 0.404372
-0.498195 0.998386 0.788344
-0.711669 0.539383 0.807623
-0.948071 0.088558 0.456400
-0.433490 0.152819 0.268455
-0.627276 0.210746 0.147215
-0.436845 0.060838 0.021395
-0.592471 0.775982 0.188865
-0.153803 0.689636 0.581514
-0.075477 0.689901 0.719726
-0.218381 0.315421 0.876334
-0.818344 0.110180 0.712843
-0.015169 0.104287 0.117849
-0.104793 0.546367 0.826394
-0.244865 0.040600 0.818180
-0.296120 0.870850 0.781131
-0.545146 0.591534 0.859620
-0.020887 0.233069 0.221285
-0.698635 0.309666 0.199766
-0.929496 0.323131 0.156908
-0.278981 0.048199 0.610365
-0.682069 0.883236 0.816233
-0.028221 0.052365 0.907099
-0.242543 0.377997 0.716602
-0.683225 0.738240 0.181108
-0.178466 0.518410 0.174116
-0.393170 0.768800 0.912666
-0.127667 0.786799 0.593364
-0.980489 0.596973 0.015482
-0.737713 0.670581 0.745289
-0.785767 0.932385 0.222148
-0.852923 0.579144 0.349156
-0.804841 0.947392 0.111811
