x y z
0.379158 0.495441 0.191842
0.141129 0.327819 0.517074
0.808625 0.188230 0.363173
0.234941 0.976704 0.584227
0.095653 0.439348 0.985889
0.732143 0.021203 0.064384
0.300345 0.790234 0.492946
0.390484 0.265541 0.249127
0.844437 0.348168 0.156219
0.172924 0.444619 0.315287
0.743200 0.799921 0.572525
0.401457 0.489747 0.468511
0.167459 0.965484 0.636844
0.842684 0.036358 0.723487
0.296808 0.244312 0.962877
0.909520 0.318247 0.652844
0.056878 0.206574 0.768980
0.805696 0.624730 0.543206
0.109253 0.873533 0.329468
0.894311 0.436109 0.800672
0.644323 0.327831 0.780655
0.342949 0.743512 0.679925
0.615101 0.580797 0.738736
0.764072 0.373465 0.713879
0.782105 0.196438 0.728483
0.539937 0.960745 0.141244
0.688618 0.915178 0.775048
0.750322 0.175549 0.588148
0.086009 0.522172 0.144599
0.198185 0.413793 0.910286
0.880474 0.704608 0.841291
0.748768 0.664700 0.320582
0.913568 0.568418 0.085047
0.143123 0.645184 0.978237
0.913982 0.318136 0.615123
0.124381 0.037909 0.567123
0.714748 0.535289 0.125668
0.972344 0.340222 0.387761
0.460313 0.820041 0.512214
0.145786 0.830275 0.477081
0.289329 0.195837 0.822463
0.491054 0.204473 0.530915
0.559833 0.373239 0.392538
0.220104 0.920598 0.799524
0.403513 0.130992 0.925925
0.683135 0.494076 0.451429
0.205739 0.436198 0.882686
0.829359 0.461265 0.395232
0.661046 0.077133 0.954954
0.172117 0.815305 0.479978
0.483118 0.712985 0.079395
0.370714 0.122214 0.581778
0.807804 0.914625 0.799209
0.795819 0.786784 0.140832
0.280261 0.101879 0.628739
0.895110 0.565240 0.767439
0.611136 0.902805 0.056445
0.577803 0.211314 0.305630
0.840969 0.679468 0.337081
-0.005394 0.105944 0.741363
0.122938 0.600685 0.063444
0.162637 0.860427 0.930743
0.799412 0.630331 0.550610
0.078920 0.849970 0.384365
0.704527 0.862433 0.488397
0.499890 0.802390 0.422424
0.497610 0.079153 0.866625
0.812498 0.109754 0.196590
0.536997 0.064244 0.873139
0.881544 0.836476 0.055997
0.370554 0.124918 0.787000
0.242826 0.511212 0.816399
0.276059 0.116499 0.470129
0.176378 0.305186 0.107788
0.486350 0.083047 0.781452
0.380510 0.966004 0.493106
0.596605 0.924668 0.045100
0.619971 0.781487 0.164356
0.580988 0.118772 0.853956
0.542277 -0.001617 0.840874
0.911401 0.897930 0.223705
0.759562 0.085606 0.826921
0.282102 0.040117 0.175693
0.609978 0.162962 0.748526
0.123306 0.918113 0.574342
0.853251 0.849512 0.166157
0.623826 0.881598 0.046622
0.824353 0.935161 0.608403
0.783493 0.849270 0.618045
0.002795 0.066133 0.154426
0.362188 0.641319 0.474478
0.727877 0.522154 0.810993
0.930955 0.435232 0.728230
0.503159 0.426037 0.297810
0.379364 0.192100 0.895676
0.393861 0.714599 0.233300
0.826426 0.387714 0.146974
0.638569 0.176105 0.833586
0.254053 0.420696 0.805829
0.515537 0.162841 0.978214
0.064556 0.493691 0.388659
0.626799 0.105656 0.125540
0.324388 0.197985 0.039205
0.232213 0.562502 0.450022
0.472321 0.609651 0.629812
0.888087 0.096825 0.147395
0.908610 -0.013055 0.854585
0.605890 0.870500 0.176774
0.928679 0.022589 0.191841
0.164410 0.041287 0.941740
0.655977 0.737211 0.908350
0.369413 0.962387 0.623831
0.538942 0.947041 0.109687
0.098307 0.794168 0.674974
0.586092 0.602024 0.737161
0.598507 0.510259 0.868271
0.835413 0.078839 0.913179
0.961754 0.118332 0.795397
0.456023 0.406047 0.772635
0.193092 0.816920 0.606639
0.683316 0.421910 0.816742
0.995949 0.898654 0.028208
0.772436 0.586376 0.718729
0.322022 0.720080 0.156650
0.957390 0.255419 0.634757
0.070324 0.745743 0.802624
0.453986 0.973789 0.233560
0.068343 0.062551 0.036121
0.819452 0.756644 0.199255
0.373120 0.366360 0.737490
0.076640 0.190734 0.654368
0.856672 0.560584 0.982410
0.287824 0.651122 0.295177
0.448218 0.559755 0.630946
0.529231 0.194530 0.964066
0.103580 0.733155 0.621005
0.991017 0.508167 0.366867
0.445681 0.534459 0.831594
0.393726 0.236536 0.672888
0.950806 0.652039 0.864083
0.053801 0.196568 0.127780
0.800424 0.062428 0.976001
0.958974 0.102543 0.347350
0.250869 0.737042 0.939561
0.980778 0.865774 0.034280
0.997269 0.388791 0.713187
0.437890 0.541179 0.617009
0.954869 0.225433 0.603886
0.453434 0.737093 0.546672
0.927132 0.136805 0.476913
0.364677 0.099703 0.362662
1.001008 0.841196 0.306631
0.179471 0.038924 0.404443
0.288878 0.396654 0.982986
0.965613 0.241013 0.512472
0.690303 0.776486 0.381677
0.430316 0.894085 0.871137
0.172433 0.477961 0.529881
0.820118 0.530461 0.429294
0.580454 0.338204 0.262895
0.965940 0.749213 0.331664
0.783742 0.468269 0.404011
0.795402 0.732786 0.487465
0.403547 0.535074 0.530010
0.266536 0.320257 0.776071
0.242999 0.353111 0.340218
0.015496 0.032043 0.665879
0.609695 0.794356 0.655645
0.938006 0.513723 0.230347
0.173035 0.347217 0.697399
0.300911 0.185869 0.884810
0.499869 0.808285 0.637378
0.893158 0.967107 0.496753
0.555373 0.705899 0.183552
0.510095 0.401300 0.038916
0.333629 0.679167 0.948083
0.288733 0.960189 0.705128
0.754554 0.051402 0.945686
0.107880 0.082984 0.204816
0.230227 0.235811 0.328861
0.799514 0.251914 0.726442
0.170066 0.687556 0.051442
0.779674 0.479848 0.831502
0.154959 0.863643 0.827459
0.241659 0.969698 0.562304
0.510974 0.179688 0.453413
0.520449 0.468359 0.701374
0.106020 0.804024 0.520187
0.405728 0.038964 0.121840
0.531268 0.399946 0.263048
0.176525 0.271123 0.720061
0.722904 0.837034 0.834604
0.606228 0.414254 0.612807
0.582763 0.343903 0.779059
0.635148 0.038488 0.208661
0.102126 0.801071 0.224247
0.846505 0.260884 0.002842
0.683171 0.907966 0.387446
0.717118 0.435857 0.876513
0.035285 0.325387 0.717552
