x y z
0.721578 -0.872152 0.688598
0.525234 -0.135125 0.435901
0.498748 -0.063270 0.192856
0.510073 -0.703802 0.417704
0.331495 -0.751279 0.533643
0.192586 -0.998195 0.671805
0.208217 -0.319503 0.028632
0.316004 -0.317763 0.933056
0.261930 -0.522267 0.200580
0.743708 -0.770980 0.921749
0.798200 -0.833399 0.223166
0.052670 -0.582003 0.577061
0.865422 -0.239006 0.439786
0.602680 -0.896503 0.715991
0.910294 -0.311747 0.526026
0.249916 -0.082098 0.101987
0.041299 -0.332722 0.715286
0.004010 -0.953413 0.499852
0.775144 -0.773913 0.800409
0.801025 -0.241890 0.770630
0.220737 -0.443863 0.015355
0.098429 -0.746840 0.458281
0.489878 -0.357508 0.596897
0.352529 -0.854635 0.052969
0.044845 -0.841688 0.180166
0.380777 -0.915971 0.828993
0.471963 -0.492746 0.626746
0.542510 -0.876675 0.780203
0.364116 -0.682549 0.937484
0.633190 -0.031558 0.012017
0.954197 -0.842753 0.003640
0.399492 -0.012068 0.828948
0.212812 -0.483931 0.857620
0.191095 -0.235152 0.466256
0.823726 -0.243935 0.883775
0.869040 -0.714592 0.641153
0.269235 -0.779679 0.008073
0.579078 -0.669610 0.244230
0.066827 -0.510599 0.228874
0.810852 -0.461141 0.575238
0.200699 -0.757006 0.574289
0.438733 -0.206133 0.618999
0.857916 -0.409045 0.334361
0.550382 -0.974300 0.610785
0.361965 -0.948918 0.859851
0.543066 -0.159068 0.955932
0.965981 -0.843340 0.231148
0.186155 -0.935018 0.382869
0.930811 -0.998114 0.119009
0.884123 -0.762447 0.350765
0.959204 -0.624257 0.958648
0.206710 -0.661120 0.276503
0.514359 -0.009992 0.327359
0.779924 -0.200163 0.417446
0.023406 -0.436448 0.585131
0.731110 -0.000436 0.199127
0.129099 -0.472358 0.906500
0.486785 -0.190714 0.409718
0.220937 -0.929112 0.781788
0.601849 -0.228041 0.542856
0.621681 -0.281065 0.534283
0.745701 -0.885100 0.223171
0.175289 -0.647391 0.576675
0.450941 -0.422795 0.511600
0.844726 -0.461387 0.340763
0.297562 -0.293961 0.923705
0.033488 -0.543399 0.015345
0.177060 -0.448394 0.988593
0.077003 -0.813820 0.104576
0.306577 -0.034360 0.362349
0.023821 -0.855205 0.905522
0.159012 -0.101029 0.794182
0.270979 -0.744568 0.507207
0.232844 -0.500800 0.431602
0.359163 -0.696611 0.220075
0.478366 -0.974429 0.755709
0.547367 -0.315484 0.567385
0.695431 -0.604531 0.996243
0.396239 -0.078683 0.626515
0.115882 -0.562706 0.685255
0.546577 -0.314484 0.449540
0.425593 -0.712734 0.836120
0.118940 -0.678996 0.861234
0.198676 -0.663005 0.744765
0.893059 -0.394549 0.304195
0.164783 -0.773262 0.227896
0.454825 -0.094852 0.838833
0.825955 -0.546982 0.969510
0.276563 -0.073302 0.081056
0.496183 -0.388866 0.160668
0.862294 -0.978743 0.056152
0.124335 -0.835756 0.613646
0.366591 -0.134052 0.956776
0.837522 -0.052702 0.080862
0.992732 -0.117745 0.785227
0.423173 -0.777782 0.064301
0.266272 -0.809235 0.307128
0.437552 -0.001283 0.103791
0.873626 -0.771934 0.637949
0.251471 -0.223747 0.788045
0.843998 -0.924110 0.803088
0.537836 -0.728278 0.888340
0.280667 -0.170679 0.126231
0.196746 -0.733476 0.485069
0.927393 -0.991297 0.644248
0.373592 -0.679467 0.021002
0.131121 -0.179734 0.718573
0.070094 -0.763392 0.300238
0.076596 -0.963609 0.326578
0.685955 -0.347901 0.661935
0.175211 -0.231669 0.589714
0.044736 -0.467576 0.420626
0.009064 -0.921823 0.206326
0.457180 -0.208752 0.067159
0.698575 -0.061879 0.535282
0.907966 -0.819092 0.908293
0.203674 -0.463960 0.763521
0.863964 -0.216705 0.902241
0.386547 -0.483055 0.163397
0.673315 -0.052940 0.263564
0.957190 -0.394828 0.351352
0.342211 -0.378383 0.793689
0.292689 -0.240472 0.866243
0.891519 -0.944897 0.180161
0.020038 -0.585362 0.840266
0.437847 -0.801985 0.278459
0.029074 -0.052747 0.143755
0.623586 -0.252583 0.781103
0.310170 -0.047152 0.226234
0.569352 -0.718391 0.216812
0.314541 -0.840467 0.984300
0.894740 -0.291992 0.472612
0.093666 -0.167338 0.235524
0.198015 -0.035820 0.691818
0.708039 -0.012615 0.719146
0.430728 -0.129220 0.221169
0.200579 -0.053066 0.298410
0.349636 -0.865838 0.359641
0.006970 -0.570924 0.115355
0.766806 -0.415686 0.777435
0.617854 -0.653997 0.045865
0.048809 -0.825527 0.708290
0.927821 -0.714297 0.528297
0.341801 -0.839095 0.173972
0.671968 -0.103764 0.524282
0.681957 -0.659501 0.574726
0.531165 -0.353296 0.913762
0.939322 -0.546381 0.589239
0.124872 -0.069518 0.844301
0.982668 -0.276961 0.185717
0.906877 -0.302655 0.117513
0.309583 -0.710196 0.075765
0.370603 -0.935153 0.527843
0.843440 -0.061738 0.414387
0.368152 -0.094060 0.288175
0.545284 -0.912229 0.370710
0.886465 -0.853100 0.693490
0.616874 -0.508116 0.834553
0.785165 -0.553732 0.615458
0.695766 -0.989130 0.826018
0.711480 -0.325028 0.631770
0.352668 -0.836507 0.162004
0.322913 -0.098060 0.646745
0.682883 -0.189371 0.592580
0.345895 -0.687245 0.465390
0.527863 -0.079204 0.039287
0.931484 -0.919717 0.984230
0.312101 -0.280721 0.905862
0.851919 -0.882108 0.613149
0.575750 -0.318461 0.407814
0.462816 -0.071871 0.568344
0.979539 -0.330222 0.170821
0.538162 -0.601954 0.603544
0.223640 -0.587804 0.365679
0.534019 -0.201681 0.244270
0.425938 -0.387295 0.105757
0.297956 -0.269824 0.249335
0.809953 -0.553843 0.928504
0.863633 -0.993641 0.311744
0.160391 -0.654026 0.315546
0.033540 -0.649985 0.375458
0.341706 -0.859654 0.757980
0.216538 -0.487691 0.642819
0.067243 -0.382197 0.797634
0.739465 -0.685893 0.403574
0.484288 -0.421569 0.627576
0.362079 -0.893122 0.494338
0.036492 -0.888562 0.743649
0.634746 -0.487310 0.392507
0.352590 -0.070097 0.225627
0.017641 -0.373370 0.440268
0.805924 -0.773798 0.001610
0.793389 -0.422295 0.281515
0.415065 -0.525282 0.441463
0.750508 -0.408519 0.750373
0.146179 -0.349999 0.747073
0.587733 -0.910082 0.751631
0.316374 -0.957021 0.795616
0.163582 -0.990688 0.213268
0.228363 -0.982919 0.760687
