x y z
0.288760 -0.218212 0.689173
0.879385 -0.354288 0.677852
0.915853 -0.563281 0.779619
0.019979 -0.555813 0.549421
0.470605 -0.287210 0.552424
0.537487 -0.668068 0.509345
0.755377 -0.540286 0.184841
0.879289 -0.803038 0.381622
0.081868 -0.379116 0.714372
-0.002373 -0.279651 0.768734
0.492158 -0.045435 0.182750
0.753253 -0.527925 0.314478
0.145144 -0.524301 0.374809
0.390872 -0.926170 0.475330
0.660416 -0.919499 0.977188
0.779252 -0.717460 0.636141
0.702200 -0.711624 0.230941
0.265428 -0.897357 0.121654
0.910340 -0.539926 0.760601
0.225579 -0.079004 0.095582
0.860882 -0.715458 0.309343
0.956051 -0.179391 0.910616
0.049363 -0.887695 0.531615
0.467849 -0.121553 0.780215
0.813080 -0.590190 0.556402
0.843964 -0.057101 0.255931
1.003267 -0.587467 0.008672
0.962442 -0.176280 0.952670
0.064680 -0.551589 0.925558
0.230296 -0.101814 0.180624
0.030713 -0.438901 0.538607
0.269961 -0.569548 0.953104
0.857033 -0.554294 0.128915
0.073598 -0.445623 0.156692
0.799282 -0.934963 0.266982
0.622483 -0.801475 0.245907
0.069044 -0.538795 0.046131
0.688908 -0.538445 0.582500
0.220530 -0.493297 0.347589
0.016462 -0.247398 0.714213
0.348970 -0.091093 0.066616
0.435353 -0.976610 0.324507
0.579966 -0.866316 0.775527
0.359607 -0.670486 0.846898
0.236954 -0.772436 0.974686
0.697412 -0.844476 0.443262
0.499076 -0.746991 0.147417
0.729873 -0.791129 0.554061
0.355731 -0.336072 0.777632
0.257062 -0.908849 0.552448
0.053109 -0.711292 0.814332
0.076296 -0.582240 0.272800
0.849493 -0.804028 0.362138
0.964650 -0.762332 0.157262
0.395993 -0.653357 0.744978
0.788731 -0.038295 0.735973
0.833716 -0.621589 0.836941
0.007100 -0.873258 0.408853
0.490184 -0.875271 0.629250
0.607303 -0.459640 0.300879
0.033587 -0.516744 0.444528
0.726014 -0.795857 0.893915
0.445520 -0.892149 0.524594
0.847508 -0.267058 0.337454
0.159776 -0.892894 0.850432
0.514895 -0.589447 0.501511
0.756761 -0.376023 0.287826
0.196820 -0.358057 0.927333
0.268890 -0.309697 0.089714
0.622101 -0.005120 0.072618
0.085130 -0.138882 0.427262
0.250805 -0.504812 0.477437
0.081423 -0.885116 0.085019
0.661380 -0.893545 0.022302
0.442837 -0.233402 0.614038
0.118171 -0.593175 0.140097
0.760654 -0.142782 0.652309
0.709409 -0.803649 0.611812
0.380093 -0.438837 0.578389
0.967878 -0.713047 0.977763
0.070542 -0.151000 0.857390
0.105095 -0.398690 0.402792
0.102099 -0.228095 1.008991
0.455487 -0.915629 0.142575
0.466799 -0.347685 0.826506
0.918057 -0.973611 0.489907
0.770753 -0.319926 0.783195
0.972539 -0.968456 0.696480
0.578621 -0.775253 0.219038
0.044497 -0.698584 0.410681
0.058503 -0.213683 0.088678
0.702701 -0.083121 0.901112
0.853056 -1.034747 0.753741
0.608375 -0.603315 0.139716
0.283480 -0.799096 0.113868
0.134334 -0.113762 0.679519
0.556025 -0.985477 0.485693
0.093429 -0.240131 0.236377
0.067273 -0.231624 0.612518
0.614950 -0.712933 0.610606
0.499311 -0.518886 0.706710
0.482214 -0.896696 0.399243
0.240114 -0.123279 0.088274
0.773792 -0.676470 0.884443
0.882409 -0.706943 0.382396
0.987217 -0.183791 0.039675
0.391020 -0.534515 0.639230
0.319281 -0.137936 0.372537
0.145770 -0.445725 0.610407
0.356742 -0.021818 0.261847
0.837312 -0.447903 0.420003
0.561075 -0.740806 0.612234
0.106256 -0.221399 0.692153
0.249929 -0.786682 0.572530
0.722034 -0.620655 0.358799
0.389493 -0.236313 0.683246
0.677237 -0.684685 0.378041
0.970096 -0.642838 0.260161
0.202839 -0.931077 0.602699
0.618754 -0.859194 0.748607
0.199723 -0.387466 0.019812
0.443739 -0.892602 0.995001
0.484716 -0.757426 0.875514
0.184118 -0.650183 0.247025
0.590842 -0.443994 0.811049
0.433454 -0.886452 0.650726
0.500222 -0.771852 0.347004
0.708223 -0.084065 0.799393
0.240000 -0.554650 0.240483
0.100556 -0.537446 0.097430
0.273938 -0.484436 0.569954
0.281767 -0.771175 0.182204
0.163624 -0.519507 0.016087
0.045385 -0.037294 0.326747
0.013563 -0.859503 0.778067
0.105466 -0.823088 0.465630
0.105679 -0.905521 0.233562
0.328100 -0.280074 0.465073
0.628800 -0.278072 0.595994
0.773894 -0.806906 0.118783
0.509899 -0.969373 0.240184
0.622239 -0.803338 0.606934
0.564761 -0.290250 0.738544
0.108173 -0.438164 0.323328
0.409767 -0.719929 0.588671
0.973219 -0.893315 0.570632
0.932224 -0.148134 0.279715
0.284346 -0.506487 0.169665
0.894031 -0.571114 0.446276
0.218798 -0.208857 0.609252
0.811848 -0.824586 0.091585
0.512444 -0.394590 0.356085
0.740079 -0.224556 0.406508
0.726344 -0.808279 0.253581
0.804118 -0.135139 0.692002
0.316912 -0.621747 0.903236
0.469568 -0.573349 0.548727
0.046507 -0.216592 0.179636
0.880748 -0.135337 0.356614
0.419714 -0.909022 0.865459
0.630794 -0.079230 0.975881
0.911676 -0.699462 0.440804
0.083882 -0.275437 0.243518
0.549028 -0.868774 0.204191
0.029797 -0.182726 0.288424
0.437635 -0.938319 0.581956
0.480061 -0.069753 0.304685
0.838286 -0.089884 0.522335
0.324398 -0.838584 0.480309
0.438473 -0.453800 0.637902
0.519995 -0.492465 0.931428
0.233526 -0.486317 0.339180
0.620207 -0.750933 0.841795
0.821851 -0.983830 0.144790
0.184666 -0.070215 0.417461
0.504979 -0.233481 0.283060
0.371947 -0.961128 0.950862
0.141315 -0.236273 0.879202
0.315080 -0.370321 0.928183
0.332444 -0.449530 0.102738
0.698062 -0.910192 0.653755
0.891916 -0.452750 0.229053
0.911127 -0.240121 0.303148
0.814707 -0.305537 0.199583
0.887051 -0.084266 0.308135
0.373781 -0.486898 0.657992
0.291042 -0.395906 0.737704
0.167421 -0.047397 0.375792
0.534119 -0.672647 0.252515
0.595438 -0.473218 0.763884
0.658983 -0.853618 0.570629
0.011588 -0.709514 0.900178
0.770883 -0.390799 0.787393
0.436016 -0.258958 -0.006389
0.291313 -0.586161 0.386934
0.752709 -0.370103 0.853450
0.506592 -0.712253 0.470699
0.168279 -0.255772 0.137468
0.830501 -0.406992 0.174298
0.004885 -0.723411 0.817956
