x y z
0.096992 -0.396522 0.295209
0.297990 -0.771156 0.539911
0.136249 -0.449583 0.561793
0.580638 -0.833288 0.062968
0.796444 -0.923148 0.068383
0.726268 -0.527871 0.287461
0.763358 -0.923885 0.808981
0.776474 -0.616641 0.246886
0.244458 -0.929101 0.382274
0.506980 -0.881071 0.971340
0.660744 -0.158680 0.786880
0.106208 -0.147290 0.421002
0.409084 -0.826221 0.828067
0.427530 -0.774886 0.709482
0.587787 -0.661106 0.152692
0.885268 -0.572087 0.224096
0.020122 -0.620229 0.136541
0.664037 -0.373106 0.668047
0.298260 -0.218478 0.007834
0.810635 -0.799331 0.924331
0.495803 -0.467116 0.653617
0.396243 -0.048938 0.681906
0.746846 -0.015780 0.478859
0.325490 -0.845197 1.002879
0.315761 -0.265321 0.110987
0.504514 -0.508390 0.443539
0.883844 -0.411279 0.203961
0.434896 -0.909352 0.624984
0.847957 -0.859038 0.530606
0.669018 -0.994633 0.139420
0.915368 -0.397545 0.813265
0.978233 -0.956888 0.146527
0.353196 -0.824345 0.490964
0.942959 -0.903558 0.541431
0.817947 -0.935489 0.465614
0.991794 -0.907669 0.442700
0.731274 -0.987322 0.915785
0.679925 -0.586795 0.140073
0.904091 -0.114038 0.107665
0.907432 -0.963011 0.819478
0.116072 -0.314246 0.298349
0.168144 -0.778115 0.662803
0.877376 -0.176199 0.382553
0.890702 -0.365877 0.944597
0.170444 -0.888821 0.823610
0.249326 -0.169227 0.021867
0.719650 -0.197812 0.862790
0.345102 -0.064482 0.344377
0.664947 -0.305195 0.177007
0.841854 -0.374092 0.559338
0.471472 -0.486332 0.747941
0.049978 -0.329005 0.194073
0.166124 -0.470647 0.768239
0.356308 -0.692836 0.881381
0.716942 -0.974527 0.908105
0.423707 -0.940329 0.810311
0.890495 -0.596685 0.633947
0.734069 -0.883341 0.574250
0.286333 -0.505841 0.134298
0.924568 -0.464611 0.144843
0.481543 -0.690309 0.562502
0.035746 -0.149070 0.096361
0.007271 -0.780870 0.990694
0.127521 -0.341430 0.064481
0.479767 -0.394154 0.161799
0.181986 -0.007251 0.028485
0.895687 -0.712614 0.250812
0.823815 -0.569163 0.223131
0.316079 -0.016711 0.473149
0.869436 -0.708717 0.065981
0.060324 -0.201098 0.601685
0.883965 -0.679370 0.570556
0.388477 -0.752466 0.676522
0.206921 -0.506154 1.010476
0.840180 -0.481274 0.627016
0.240087 -0.491451 0.767987
0.826674 -0.221302 0.212926
0.543406 -0.216809 0.391252
0.982297 -0.219839 0.876862
0.235643 -0.687906 0.310340
0.879852 -0.685839 0.509385
0.915173 -0.128850 0.515604
0.326789 -0.020291 0.244984
0.685231 -0.078151 0.800088
0.004859 -0.257409 0.460476
0.179529 -0.556780 0.056854
0.017422 -0.743805 0.115434
0.086420 -0.098259 0.848452
0.203673 -0.927301 0.205570
0.729826 -0.069810 0.933486
0.751354 -0.394794 0.558990
0.432434 -0.412139 0.900369
0.044496 -0.046518 0.621575
0.241034 -0.078043 0.990028
0.487969 -0.392204 0.107898
0.384369 -0.219621 0.065541
0.787215 -0.200613 0.325897
0.498090 -0.250926 0.669692
0.525067 -0.638614 0.894369
0.280223 -0.184299 0.164533
0.587806 -0.920023 0.425676
0.680645 -0.460350 0.418993
0.214072 -0.622585 0.008906
0.041541 -0.059096 0.285323
0.988196 -0.125152 0.536396
0.130478 -0.036939 0.519966
0.417811 -0.150750 0.285994
0.329298 -0.404836 0.015142
0.063980 -0.470054 0.715089
0.989518 -0.109543 0.399966
0.447127 -0.230265 0.354715
0.933064 -0.770640 0.814671
0.293332 -0.654328 0.630149
0.199411 -0.978038 0.055102
0.403757 -0.680132 0.315745
0.685663 -0.097034 0.301155
0.963872 -0.359362 0.700656
0.088059 -0.312519 0.498095
0.142842 -0.843835 0.932297
0.041519 -0.381108 0.812748
0.890234 -0.572839 0.236654
0.846932 -0.306351 0.315024
0.181989 -0.390106 0.511378
0.494180 -0.436803 0.489827
0.761715 -0.645509 0.593578
0.463451 -0.784663 0.437261
0.807043 -0.053108 0.448395
0.339056 -0.353309 0.522772
0.355409 -0.665794 0.612356
0.528398 -0.592127 0.683094
0.273372 -0.332375 0.485641
0.651570 -0.177132 0.344999
0.985127 -0.638342 1.000160
0.509332 -0.582850 0.489646
0.497203 -0.496965 0.273972
0.852749 -0.731182 0.963180
0.671849 -0.290407 0.269747
0.891384 -0.862020 0.655864
0.790915 -0.863429 0.033096
0.228678 -0.571193 0.829182
0.036729 -0.106380 0.106370
0.187463 -0.621686 0.160287
0.694477 -0.848128 0.216052
0.780703 -0.517998 0.752920
0.762343 -0.995508 0.609312
0.558935 -0.558499 0.865905
0.903795 -0.425720 0.826963
0.540466 -0.833792 0.865236
0.118801 -0.995598 0.293273
0.053198 -0.167013 0.831949
0.577444 -0.458692 0.096890
0.453114 -0.802941 0.425095
0.833663 -0.049813 0.080247
0.167944 -0.698819 0.395061
0.050792 -0.357633 0.941605
0.815816 -0.698718 0.809460
0.160710 -0.404448 0.356178
0.331086 -0.407750 0.097254
0.079529 -0.768635 0.702229
0.396264 -0.968210 0.923987
0.574549 -0.139030 0.287048
0.090950 -0.259758 0.502171
0.520291 -0.731540 0.571447
0.817098 -0.339424 0.451900
0.283810 -0.943508 0.331231
0.024546 -0.351425 0.154372
0.363653 -0.923705 0.238063
0.633702 -0.373444 0.937446
0.084901 -0.275036 0.023847
0.449878 -0.008425 0.840269
0.178553 -0.255003 0.916109
0.303803 -0.543445 0.076685
0.556633 -0.941246 0.097895
0.316065 -0.564807 0.030222
0.860539 -0.814057 0.656890
0.686842 -0.985923 0.866420
0.749144 -0.551642 0.370608
0.223757 -0.844096 0.132269
0.967447 -0.348167 0.357098
0.820102 -0.699484 0.040360
0.279313 -0.898385 0.886206
0.455135 -0.016155 0.893202
0.525765 -0.867988 0.331616
0.585837 -0.248859 0.960207
0.154720 -0.153374 0.087451
0.714884 -0.849972 0.557121
0.577775 -0.817987 0.952397
0.183109 -0.585371 0.565491
0.482878 -0.104524 0.407813
0.978140 -0.462402 0.867922
0.788316 -0.676699 0.972152
0.147547 -0.329628 0.307952
0.185008 -0.152913 0.881181
0.657779 -0.401666 0.478742
0.325014 -0.081600 0.808613
0.976906 -0.845961 0.056897
0.187973 -0.784417 0.552800
0.366805 -0.562396 0.964071
0.514484 -0.167753 0.644212
0.100644 -0.184839 0.863096
