x y z
-0.838533 -0.714324 0.187122
-0.658216 -0.663979 0.691144
-0.988474 -0.230197 0.266696
-0.117234 -0.679311 0.769205
-0.406443 -0.940396 0.427506
-0.844668 -0.193257 0.662488
-0.712179 -0.951286 0.863369
-0.996851 -0.160159 0.766702
-0.510606 -0.801991 0.871014
-0.729346 -0.785597 0.209395
-0.649695 -0.457249 0.783611
-0.947479 -0.264552 0.589668
-0.569258 -0.006944 0.759843
-0.919744 -0.751299 0.708758
-0.854154 -0.655338 0.245658
-0.345591 -0.448890 0.301108
-0.589826 -0.325203 0.328258
-0.260534 -0.894157 0.870361
-0.585514 -0.977225 0.516246
-0.264262 -0.834115 0.822403
-0.522601 -0.719186 0.746607
-0.423608 -0.186066 0.651052
-0.877924 -0.151676 0.930539
-0.221555 -0.391100 0.137560
-0.738010 -0.317857 0.346305
-0.952735 -0.560606 0.639204
-0.730227 -0.821016 0.022237
-0.325816 -0.845212 0.168537
-0.899125 -0.061369 0.190419
-0.948558 -0.712753 0.386593
-0.942547 -0.245366 0.083149
-0.862376 -0.909876 0.566574
-0.350172 -0.590473 0.707775
-0.209316 -0.131691 0.486929
-0.090184 -1.006895 0.701811
-0.937262 -0.212784 0.834640
-0.835550 -0.875798 0.168626
-0.448792 -0.661741 0.567980
-0.092576 -0.967117 0.343592
-0.422671 -0.125795 0.636041
-0.944691 -0.238367 0.026683
-0.452954 -0.250044 0.809478
-0.739038 -0.468178 0.190550
-0.451979 -0.618897 0.174360
-0.110506 -0.633391 0.214510
-0.017896 -0.624865 0.420239
-0.303792 -0.487608 0.453959
-0.049837 -0.713055 0.051364
-0.788602 -0.581644 0.973376
-0.842263 -0.159764 0.530827
-0.048021 -0.678727 0.193104
-0.657005 -0.774213 0.782769
-0.581173 -0.125300 0.686879
-0.173805 -0.759936 0.246415
-0.607479 -0.108792 0.468064
-0.747625 -0.767625 0.366445
-0.211873 -0.953743 0.728773
-0.640991 -0.546756 0.995691
-0.712038 -0.491819 0.878487
-0.378326 -0.614243 0.318754
-0.149186 -0.208305 0.993858
-0.828304 -0.968999 0.359043
-0.634007 -0.324956 0.125513
-0.235328 -0.437637 0.682864
-0.371546 -0.835691 0.899914
-0.233547 -0.796071 0.633455
-0.376894 -0.673171 0.565960
-0.024580 -0.591402 0.793745
-0.246957 -0.750864 0.228156
-0.280159 -0.118988 0.899011
-0.131778 -0.092106 0.781396
-0.844241 -0.517798 0.226169
-0.512310 -0.439153 0.045745
-0.132221 -0.458336 0.628343
-0.777316 -0.064686 0.826367
-0.457931 -0.058960 0.341898
-0.739338 -0.663652 0.625078
-0.881834 -0.169970 0.120990
-0.931498 -0.113568 0.518805
-0.502009 -0.149945 0.405559
-0.331911 -0.965437 0.604213
-0.559633 -0.280641 0.166056
-0.052610 -0.201064 0.657596
-0.481019 -0.831239 0.072275
-0.684091 -0.656688 0.839800
-0.046620 -0.858824 0.409334
-0.829577 -0.973367 0.138640
-0.832977 -0.367221 0.805179
-0.122399 -0.994053 0.937599
-0.314903 -0.211780 0.508399
-0.616713 -0.164201 0.482597
-0.924974 -0.346999 0.327188
-0.371989 -0.108458 0.520638
-0.555048 -0.169578 0.375889
-0.427202 -0.151428 0.367950
-0.340569 -0.729462 0.130093
-0.719898 -0.783612 0.535767
-0.853873 -0.004559 0.338309
-0.591580 -0.462002 0.821430
-0.347054 -0.134711 0.519873
-0.186257 -0.841477 0.965221
-0.060902 -0.924617 0.146708
-0.873149 -0.034193 0.230925
-0.052958 -0.413857 0.889412
-0.408242 -0.194551 0.388953
0.003532 -0.150396 0.163220
-0.917416 -0.254401 0.885267
-0.556660 -0.799418 0.421959
-0.787849 -0.352234 0.258986
-0.675267 -0.572049 0.504725
-0.730024 -0.321952 0.475482
-0.889006 -0.152588 0.381113
-0.842824 -0.032005 0.417793
-0.201901 -0.533731 0.039855
-0.950945 -0.046543 0.383035
-0.932961 -0.932578 0.864724
-0.383342 -0.304407 0.508613
-0.388317 -0.178139 0.884242
-0.847291 -0.082913 0.471674
-0.059848 -0.983816 0.591029
-0.066185 -0.636836 0.326119
-0.680451 -0.867308 0.234140
-0.979031 -0.874710 0.787663
-0.704979 -0.121728 0.089246
-0.887651 -0.082318 0.370781
-0.556484 -0.123607 0.973096
-0.002395 -0.066813 0.011792
-0.889141 -0.661998 0.686638
-0.172387 -0.871357 0.910268
-0.292827 -0.491491 0.607497
-0.760448 -0.075865 0.659236
-0.138561 -1.000599 0.048972
-0.960763 -0.691922 0.510927
-0.374043 -0.836842 0.588217
-0.112254 -0.639091 0.804346
-0.734123 -0.585483 0.729461
-0.892586 -0.628426 0.214618
-0.900858 -0.571699 0.251635
-0.959248 -0.113284 0.652443
-0.773859 -0.991373 0.557428
-0.203263 -0.047592 0.705208
-0.879577 -0.133470 0.643413
-0.958268 -0.301761 0.899945
-0.901961 -0.395330 0.713024
-0.591729 -0.150967 0.744152
-0.669793 -0.986753 0.793917
-0.554507 -0.193575 0.112484
-0.315724 -0.279107 0.193506
-0.683795 -0.133479 0.744796
-0.699821 -0.658985 0.433422
-0.514432 -0.213848 0.042994
-0.913810 -0.641684 0.941463
-0.803388 -0.153697 0.940801
-0.157297 -0.782564 0.577209
-0.280269 -0.063433 0.896930
-0.771359 -0.638885 0.369531
-0.808207 -0.893552 0.542459
-0.231051 -0.112714 0.556942
-0.215348 -0.421575 0.992461
-0.866089 -0.703435 0.373092
-0.492518 -0.750894 0.377093
-0.377575 -0.951270 0.203172
-0.457714 -0.113200 0.226739
-0.777869 -0.180652 0.986721
-0.713381 -0.728409 0.426724
-0.813926 -0.181775 0.046414
-0.200971 -0.097442 0.679826
-0.616045 -0.539058 0.866072
-0.926032 -0.211580 0.536430
-0.681988 -0.665250 0.841505
-0.201172 -0.213519 0.143167
-0.228343 -0.849186 0.123598
-0.865672 -0.463059 0.826009
-0.742461 -0.221868 0.575803
-0.112899 -0.334854 0.875788
-0.317868 -0.354130 0.149579
-0.226275 -0.798861 0.793382
-0.987148 -0.768081 0.900212
-0.816442 -0.613672 0.929599
-0.874256 -0.460315 0.126257
-0.384078 -0.246648 0.065624
-0.055724 -0.843841 0.840479
-0.515861 -0.294723 0.634405
-0.523247 -0.167013 0.225715
-0.838229 -0.666778 0.054813
-0.596734 -0.582292 0.808228
-0.895686 -0.829686 0.343800
-0.519228 -0.523100 0.833670
-0.827523 -0.618748 -0.018287
-0.067940 -0.010248 0.009266
-0.997658 -0.480519 0.603869
-0.559510 -0.963282 0.511115
-0.441464 -0.076439 0.915544
-0.705207 -0.643001 0.254925
-0.045149 -0.930245 0.757067
-0.175988 -0.677132 0.119306
-0.951843 -0.825437 0.493600
-0.469615 -0.355869 0.646929
-0.300760 -0.810279 0.173362
-0.658911 -0.732733 0.975259
