x y z
0.442368 0.458615 0.005656
0.290169 0.238079 0.323983
0.041700 0.747869 0.147641
0.935328 -0.007051 0.532108
0.146297 0.303984 0.315319
0.932808 0.215176 0.544836
0.949749 0.668172 0.585809
0.459138 0.406411 0.866772
0.297947 0.894270 0.772661
0.629375 0.391108 0.326686
0.146898 0.357830 0.198512
0.169291 0.237379 0.171438
0.781199 0.116144 0.566862
0.110946 0.636779 0.824013
0.414524 0.843931 0.400942
0.697582 0.284100 0.144213
0.450998 0.495158 0.917371
0.120131 0.463199 0.332270
0.058738 0.099441 0.347557
0.145374 0.509072 -0.002956
0.693001 0.381647 0.188026
0.735350 0.305679 0.171842
0.501072 0.040124 0.334784
0.204440 0.076082 0.589023
0.802811 0.891731 0.576052
0.494237 0.550840 0.549178
0.480128 0.660613 0.773315
0.682696 0.319492 0.309268
0.981550 0.805014 0.348453
0.915274 0.923016 0.413116
0.441510 0.596094 0.646975
0.687149 0.861685 0.587442
0.766659 0.649102 0.396630
0.109245 0.011127 0.026445
0.356013 0.718534 0.868693
0.946070 0.326878 0.139320
0.527390 0.201911 0.867930
0.870079 0.942813 0.734783
0.926893 0.789431 0.628245
0.887209 0.954556 0.348214
0.334447 0.181966 0.926280
0.483509 0.466468 0.473606
0.665737 0.981319 0.491205
0.034770 0.940640 0.831200
0.838234 0.264155 0.062554
0.259335 0.257868 0.979286
0.328506 0.016349 0.911811
0.478858 0.374843 0.700241
0.748542 0.564192 0.533282
0.780940 0.505937 0.011247
0.547356 0.320221 0.113343
0.222756 0.861964 0.648771
0.782886 0.239207 0.832823
0.824801 0.899680 0.492603
0.947035 0.448779 0.982855
0.343415 0.818998 0.287366
0.871026 0.480385 0.974429
0.346874 0.154170 0.651479
0.104029 0.039546 0.932815
0.170536 0.127740 0.174722
0.888632 0.670523 0.727605
0.673233 0.859481 0.354872
0.856417 0.378159 0.956470
0.880247 0.895050 0.562362
0.839750 0.924974 0.523111
0.792376 0.302287 0.972330
0.630998 0.447606 0.547306
0.574794 0.186228 0.502490
0.769182 0.265185 0.513709
0.613176 0.312425 0.769028
0.201059 0.569093 0.631925
0.929608 0.433918 0.906231
0.705958 0.225052 0.244188
0.553458 0.813688 0.886185
0.290791 0.560496 0.734477
0.433316 0.197118 0.304109
0.674026 0.324527 0.891512
0.242847 0.726002 0.163210
0.370265 0.635354 0.520847
0.818962 0.715494 0.134987
0.383202 0.845427 0.304618
0.241170 0.927647 0.935991
0.501510 0.623998 0.911834
0.714481 0.283389 0.884945
0.544368 0.013288 0.008084
0.284128 0.086416 0.489426
0.286106 0.130392 0.315594
0.508587 0.493728 0.946262
0.850708 0.650938 0.454092
0.830837 0.361148 0.328996
0.770985 0.710652 0.240504
0.347034 0.935608 0.942301
0.383960 0.589906 0.735243
0.491312 0.367341 0.721918
0.416910 0.190824 0.275314
0.125816 0.678377 0.027241
0.966365 0.666875 0.243505
0.939050 0.943050 0.970562
0.224367 0.256030 0.772465
0.567766 0.313467 0.534629
0.529177 0.575367 0.767476
0.581174 0.570219 0.485349
0.307284 0.604133 0.986402
0.428461 0.218049 0.755563
0.482855 0.848153 0.354055
0.902937 0.441629 0.709790
0.027598 0.580146 0.177911
0.616905 0.669009 0.777817
0.401757 0.461988 0.600278
0.317429 0.143630 0.273827
0.108327 -0.002702 0.185538
0.793658 0.875418 0.466642
0.561314 0.436787 0.263881
0.240482 0.461783 0.804912
0.100579 0.324638 0.188085
0.941305 0.828282 0.805835
0.072288 0.628476 0.424378
0.768116 0.686528 0.196015
0.796730 0.718390 0.642062
0.944697 0.563764 0.635116
0.236565 0.533895 0.317955
0.655518 0.989021 0.452389
0.139563 0.373248 0.522478
0.805798 0.514155 0.194761
0.333411 0.979024 0.289341
0.194569 0.252070 0.868028
0.498847 0.754878 0.655113
0.411309 0.121489 0.788282
0.673059 0.377356 0.521615
0.266212 0.206437 0.355709
0.541786 0.108977 0.055466
0.606684 0.031479 0.778519
0.676207 0.156779 0.170446
0.302839 0.678244 0.748831
0.016650 0.561722 0.630562
0.147221 0.672933 0.028621
0.126274 0.814240 0.027078
0.448259 0.730537 0.130105
0.877442 0.474624 0.365433
0.631949 0.899643 0.115136
0.440631 0.798141 0.144143
0.912670 0.316244 0.392017
0.099869 0.416369 0.865769
0.523446 0.780686 0.705991
0.335236 0.916812 0.844353
0.565085 0.331359 0.720062
0.327891 0.760481 0.818731
0.050196 0.780577 0.880808
0.472272 0.925854 0.619509
0.558434 0.694672 0.301796
0.233823 0.143651 0.561962
0.326288 0.858077 0.900662
0.857513 0.885203 0.698889
0.831923 0.825369 0.539377
0.956657 0.333605 0.419277
0.226938 0.424442 0.047110
0.991884 0.612964 0.084301
-0.004938 0.725252 0.127352
0.058231 0.738465 0.189971
0.549615 0.189101 0.730126
0.869393 0.139262 0.131048
0.131976 0.999947 0.167410
0.606925 0.192867 0.015107
0.248366 0.142820 0.016828
0.437376 0.115047 0.639897
0.715972 0.836054 0.605286
0.233329 0.968324 0.389823
0.858304 0.696150 0.493984
0.764296 0.673307 0.209923
0.049282 0.919465 0.927833
0.940859 0.727810 0.819180
0.455755 0.209084 0.660526
0.691540 0.666394 0.889343
0.402845 0.763478 0.301358
0.142377 0.889547 0.816524
0.747161 0.537589 0.969429
0.988167 0.211618 0.550096
0.761851 0.432246 0.679272
0.213036 0.021941 0.847135
0.874018 0.013670 0.583891
0.713755 0.462246 0.681578
0.363103 0.397129 0.035118
0.994057 0.115335 0.485306
0.173381 0.901706 0.309130
0.964851 0.824531 0.166726
0.711687 0.955373 0.830264
0.515681 0.653742 0.932561
0.651982 0.545124 0.269661
0.066244 0.728955 0.341903
0.519646 0.521211 0.523811
0.506316 0.349515 0.143653
0.867880 0.031247 0.162213
0.214118 0.281644 0.068963
0.481520 0.201671 0.652700
0.685782 0.265020 0.011384
0.786776 0.389239 0.842183
0.890296 0.590399 0.006861
0.180267 0.030593 0.960973
0.910769 0.969786 0.663532
0.279217 0.746249 0.754935
