x y z
0.099220 -0.230109 0.950653
0.630683 -0.121585 0.050902
0.868135 -0.298463 0.367493
0.224193 -0.513196 0.188676
0.175933 -0.422241 0.718243
0.367104 -0.981488 0.989264
0.277956 -0.168386 0.874433
0.849825 -0.971967 0.778337
0.039057 -0.495130 0.901345
0.793941 -0.805315 0.579854
0.587224 -0.231400 0.477409
0.047297 -0.842555 0.805907
0.858018 -0.043906 0.475352
0.140148 -0.872509 0.135828
0.395828 -0.599024 0.145048
0.244070 -0.259215 0.018087
0.098024 -0.703312 0.479782
0.583731 -0.087548 0.892393
0.010819 -0.927694 0.821138
0.195455 -0.354430 0.591856
0.308188 -0.291208 0.098638
0.240093 -0.320886 0.648685
0.133056 -0.899227 0.256388
0.132791 -0.886576 0.119268
0.083177 -0.745407 0.258241
0.244450 -0.975628 0.444563
0.231883 -0.860097 0.046142
0.080148 -0.131674 0.013108
0.721269 -0.428635 0.015325
0.400067 -0.034292 0.674271
0.479065 -0.691356 0.134236
0.178462 -0.027792 0.358759
0.062844 -0.622797 0.136631
0.119289 -0.407778 0.117816
0.237258 -0.777495 0.718927
0.786473 -0.306246 0.937843
0.760906 -0.438636 0.705342
0.557811 -0.903969 0.583458
0.280436 -0.902330 0.244318
0.232050 -0.693595 0.095861
0.333607 -0.174874 0.859715
0.984412 -0.618519 0.176270
0.486686 -0.460984 0.529090
0.149800 -0.968209 0.602286
0.493501 -0.946157 0.919907
0.181591 -0.173357 0.439546
0.649202 -0.246166 0.198080
0.282441 -0.852618 0.495948
0.889799 -0.037982 0.847949
0.873900 -0.605258 0.089213
0.612928 -0.913679 0.500833
0.898263 -0.682742 0.426243
0.142837 -0.996012 0.875413
0.837007 -0.546374 0.131507
0.766787 -0.205848 0.353854
0.477844 -0.129367 0.993838
0.808676 -0.035004 0.273957
0.042203 -0.946860 0.000769
0.052290 -0.403896 0.311347
0.691566 -0.825119 0.770633
0.814613 -0.202828 0.169463
0.731262 -0.150461 0.695857
0.986954 -0.976809 0.930060
0.118188 -0.633615 0.806587
0.663636 -0.705075 0.966186
0.515277 -0.806300 0.343655
0.856852 -0.043589 0.844730
0.253314 -0.791843 0.099440
0.590872 -0.208042 0.762774
0.355750 -0.394730 0.927562
0.696738 -0.144677 0.063633
0.640665 -0.346939 0.700206
0.637829 -0.325204 0.360392
0.420392 -0.529753 0.281510
0.150005 -0.562377 0.807839
0.177666 -0.671007 0.838800
0.853084 -0.730835 0.767892
0.010533 -0.410635 0.581693
0.254026 -0.196449 0.104373
0.028025 -0.958670 0.190498
0.928022 -0.100487 0.983115
0.377053 -0.907775 0.953538
0.111565 -0.842927 0.048972
0.964413 -0.147399 0.661050
0.637372 -0.180312 0.450372
0.099489 -0.322327 0.468304
0.921805 -0.702660 0.292507
0.627287 -0.606951 0.003010
0.447235 -0.133523 0.345831
0.201077 -0.841147 0.152587
0.889212 -0.837375 0.677206
0.821800 -0.901420 0.053855
0.059791 -0.736279 0.659500
0.325187 -0.191823 0.303369
0.571816 -0.229394 0.062366
0.465515 -0.503832 0.743022
0.386650 -0.023667 0.090147
0.173011 -0.708766 0.352499
0.157330 -0.030994 0.947129
0.689954 -0.514360 0.307910
0.507148 -0.604562 0.843496
0.631866 -0.690377 0.641702
0.632241 -0.829944 0.699073
0.317076 -0.249669 0.098645
0.799383 -0.470256 0.849768
0.507833 -0.802059 0.250800
0.229401 -0.500585 0.933680
0.328825 -0.909827 0.076744
0.719716 -0.633212 0.522916
0.428763 -0.557070 0.983578
0.362244 -0.689008 0.110360
0.852879 -0.646430 0.698874
0.589973 -0.940212 0.955230
0.001675 -0.733187 0.794932
0.386954 -0.373259 0.499095
0.556689 -0.667899 0.034977
0.432522 -0.487896 0.094191
0.176699 -0.804599 0.996119
0.237449 -0.801210 0.927619
0.811771 -0.211138 0.870475
0.001733 -0.967998 0.583841
0.776172 -0.318263 0.088801
0.860990 -0.825930 0.283768
0.448621 -0.062849 0.264182
0.158663 -0.498589 0.970330
0.048984 -0.808132 0.450976
0.332391 -0.567137 0.601837
0.069020 -0.053098 0.818099
0.751002 -0.474798 0.792132
0.736454 -0.733907 0.034818
0.185838 -0.795366 0.426181
0.228839 -0.539277 0.168907
0.103102 -0.760499 0.851515
0.112799 -0.778620 0.568300
0.176110 -0.989013 0.523223
0.488826 -0.395792 0.464410
0.160602 -0.464607 0.016761
0.086877 -0.894919 0.919792
0.558822 -0.422558 0.825296
0.709399 -0.053469 0.567862
0.443172 -0.688309 0.510370
0.005817 -0.291934 0.190188
0.888742 -0.361382 0.559063
0.209008 -0.190131 0.938871
0.982987 -0.084495 0.863344
0.339482 -0.406746 0.168341
0.225746 -0.064158 0.870651
0.037559 -0.570973 0.870674
0.036893 -0.871157 0.672458
0.087439 -0.612019 0.412676
0.086184 -0.198124 0.007034
0.585402 -0.140964 0.304126
0.712255 -0.817593 0.528069
0.628314 -0.727836 0.447326
0.069574 -0.913931 0.781937
0.320047 -0.889281 0.098011
0.932425 -0.931841 0.115435
0.992355 -0.375546 0.525512
0.308783 -0.933938 0.841031
0.953124 -0.615549 0.138386
0.430165 -0.621799 0.112852
0.277647 -0.369124 0.338108
0.533929 -0.658962 0.965131
0.916724 -0.821644 0.520775
0.913772 -0.803454 0.903080
0.100498 -0.303273 0.572611
0.144706 -0.555891 0.440151
0.410033 -0.809188 0.282859
0.428789 -0.271184 0.249297
0.661158 -0.646702 0.811963
0.607829 -0.986426 0.897789
0.327879 -0.762736 0.512046
0.670431 -0.077610 0.922136
0.832811 -0.435337 0.271471
0.859191 -0.451463 0.619519
0.549714 -0.061417 0.235088
0.022170 -0.751747 0.421290
0.863302 -0.364226 0.960293
0.067110 -0.468426 0.576969
0.518019 -0.159268 0.847752
0.798873 -0.949136 0.708848
0.481968 -0.977120 0.311327
0.181289 -0.250937 0.531279
0.524447 -0.708994 0.533126
0.059927 -0.988620 0.617548
0.981831 -0.644599 0.435462
0.775504 -0.064955 0.466513
0.927874 -0.994714 0.213946
0.065153 -0.514430 0.525721
0.420711 -0.997074 0.681458
0.689360 -0.662103 0.973286
0.685612 -0.155540 0.654737
0.188745 -0.714985 0.223555
0.011974 -0.829905 0.980103
0.430700 -0.492471 0.597787
0.809661 -0.736363 0.695093
0.254310 -0.896685 0.062262
0.096421 -0.725661 0.022683
0.549382 -0.348452 0.224206
0.370750 -0.879505 0.267109
