x y z
-0.176602 0.798502 0.568339
-0.367641 0.844784 0.453134
-0.370390 0.691754 0.784291
-0.138449 0.453124 0.321162
-0.832612 0.071510 0.442939
-0.180291 0.278867 0.604034
-0.266608 0.786748 0.664948
-0.648480 0.933080 0.400257
-0.133559 0.692410 0.434672
-0.983023 0.349196 0.753514
-0.418015 0.628104 0.700018
-0.553131 0.725211 0.062015
-0.312634 0.032818 0.233550
-0.417542 0.208195 0.836810
-0.739468 0.871146 0.159612
-0.054870 0.314015 0.820417
-0.762940 0.754287 0.515820
-0.212814 0.166898 0.914051
-0.222742 0.774452 0.449134
-0.766388 0.099013 0.788465
-0.071222 0.267998 0.436655
-0.670929 0.390927 0.406077
-0.453796 0.964602 0.873054
-0.361420 0.073964 0.408015
-0.611794 0.040745 0.770756
-0.261817 0.671910 0.376693
-0.438147 0.144741 0.940265
-0.327724 0.333397 0.726177
-0.021633 0.950423 0.165489
-0.004583 0.784823 0.805696
-0.039271 0.924953 0.809523
-0.338684 0.891177 0.944455
-0.477076 0.264506 0.168635
-0.132595 0.609670 0.959477
-0.208726 0.986842 0.146208
-0.875170 0.874473 0.501495
-0.628244 0.636802 0.412355
-0.791466 0.632288 0.383789
-0.253357 0.922737 0.374689
-0.811168 0.684358 0.286153
-0.168694 0.461332 0.890827
-0.100889 0.472475 0.194598
-0.561925 0.921216 0.184334
-0.051720 0.661178 0.281102
-0.637531 0.807057 0.946320
-0.036150 0.279428 0.787331
-0.793713 0.570883 0.901038
-0.755189 0.599875 0.708894
-0.036176 0.242976 0.493290
-0.272965 0.046691 0.843900
-0.649773 0.403317 0.771150
-0.717487 0.510353 0.557749
-0.569671 0.186248 0.226102
-0.811829 0.387744 0.024418
-0.818942 0.321074 0.279149
-0.941252 0.875647 0.855764
-0.303324 0.178906 0.587604
-0.472738 0.266493 0.389681
-0.829461 0.167029 0.177490
-0.433916 0.555924 0.452964
-0.797603 0.578481 0.954697
-0.402812 0.179739 0.945154
-0.942909 0.735964 0.901707
-0.239821 0.984813 0.254948
-0.597300 0.931191 0.716708
-0.969969 0.670104 0.196084
-0.473117 0.283911 0.079381
-0.412856 0.067794 0.466969
-0.364194 0.886993 0.276314
-0.539458 0.053707 0.495377
-0.165571 0.139001 0.237081
-0.321348 0.392782 0.809733
-0.674038 0.134201 0.360434
-0.217686 0.631822 0.264875
-0.021676 0.947414 0.814539
-0.318548 0.526401 0.633215
-0.929010 0.196945 0.431688
-0.514574 0.106833 0.135349
-0.635874 0.958857 0.853920
-0.407645 0.607731 0.740087
-0.509521 0.440169 0.596649
-0.524848 0.065781 0.895407
-0.431313 0.178367 0.442423
-0.382605 0.299049 0.336680
-0.267831 0.916352 0.120584
-0.010739 0.985233 0.390862
-0.622672 0.056639 0.447271
-0.212554 0.770570 0.495840
-0.259875 0.955800 0.091533
-0.793490 0.765798 0.861472
-0.235542 0.935396 0.969887
-0.498868 0.937713 0.828942
-0.630715 0.800043 0.131818
-0.074286 0.315619 0.803132
-0.207058 0.256610 0.029715
-0.861989 0.160884 0.950082
-0.654443 0.341071 0.987791
-0.627221 0.432381 0.344170
-0.907318 0.215592 0.295252
-0.929896 0.262715 0.750748
-0.079829 0.825787 0.940413
-0.005675 0.067333 0.460678
-0.556980 0.038437 0.670475
-0.756080 0.709492 0.701899
-0.193576 0.962744 0.767887
-0.886039 0.807131 0.377188
-0.326130 0.353282 0.693929
-0.364080 0.880623 0.338857
-0.315936 0.814615 0.941011
-0.210313 0.726058 0.068788
-0.654141 0.807612 0.441358
-0.778415 0.248414 0.129440
-0.424701 0.736822 0.109987
-0.856152 0.341144 0.519795
-0.185285 0.393457 0.709566
-0.194742 0.847621 0.609001
-0.962193 0.580737 0.363826
-0.043381 0.676485 0.906598
-0.313657 0.829013 0.660396
-0.420416 0.348774 0.226586
-0.845689 0.701637 0.985043
0.007955 0.452840 0.100169
-0.437923 0.334120 0.154871
-0.732584 0.600611 0.342558
-0.829438 0.370704 0.224961
-0.476225 -0.002557 0.472907
-0.332681 0.700524 0.984810
-0.726358 0.630258 0.264987
-0.770538 0.732023 0.686457
-0.981007 0.798288 0.689355
-0.617473 0.316735 0.061962
-0.481554 0.829932 0.367302
-0.498244 0.907039 0.155914
-0.289768 0.277291 0.757050
-0.598530 0.364169 0.006503
-0.207467 0.232020 0.609833
-0.803746 0.127317 0.780510
-0.785113 0.401720 0.543103
-0.770282 0.077701 0.928697
-0.986644 0.877066 0.006411
-0.146880 0.493715 0.607737
-0.842457 0.888773 0.262628
-0.929350 0.822656 0.694996
-0.916400 0.743464 0.224936
-0.042783 0.565465 0.909279
-0.386367 0.668972 0.748389
-0.323803 0.129776 0.136639
-0.394070 0.665186 0.064008
-0.079561 0.269365 0.778275
-0.613431 0.235877 0.515365
-0.401673 0.691766 0.048239
-0.547639 0.547892 0.633594
-0.408938 0.284881 0.268495
-0.973208 0.657980 0.814927
-0.475734 0.346002 0.091948
-0.257365 0.615843 0.684988
-0.625822 0.111361 0.011313
-0.834061 0.683666 0.258695
-0.381221 0.560299 0.665070
-0.759373 0.049108 0.270959
-1.009806 0.467803 0.182958
-0.722898 0.500629 0.667330
-0.372063 0.102383 0.971979
-0.556810 0.397494 0.991198
-0.951316 0.112299 0.962716
-0.263789 0.438720 0.532081
-0.470738 0.296345 0.037447
-0.185014 0.729227 0.982469
-0.532441 0.152601 0.288613
-0.571958 0.135351 0.163808
-0.655634 0.154836 0.959953
-0.926843 0.490074 0.338445
-0.676474 0.466205 0.543273
-0.674544 0.673719 0.616166
-0.506443 0.877381 0.586731
-0.211102 0.384689 0.518392
-0.077457 0.987624 0.495989
-0.301887 0.195547 0.197629
-0.976986 0.470888 0.076568
-0.546742 0.763072 0.133217
-0.543714 0.849481 0.621432
-0.956375 0.243695 0.079600
-0.899705 0.849698 0.130419
-0.677869 0.198568 0.162974
-0.204527 0.411171 0.340288
-0.335916 0.823365 0.718557
-0.674669 0.114524 0.425480
-0.431210 0.296402 0.691807
-0.177590 0.251890 0.521777
-0.168418 0.245118 0.296978
-0.521923 0.629445 0.894067
-0.461907 0.884023 0.729492
-0.211431 0.152046 0.348909
-0.974496 0.200168 0.184775
-0.232706 0.828208 0.495864
-0.045981 0.446665 0.925485
-0.411873 0.266075 0.845593
-0.158803 0.059463 0.867870
-0.130301 0.889571 0.797134
-0.276184 0.188258 0.672373
