x y z
0.508819 0.159003 0.463166
0.690109 0.570779 0.501097
0.481339 0.936401 0.265723
0.650853 0.960885 0.246595
0.729803 0.470818 0.693698
0.070187 0.090605 0.430131
0.032301 0.632949 0.871276
0.106572 0.466977 0.132301
0.616829 0.179602 0.476647
0.980896 0.308926 0.916053
-0.009374 0.596645 0.271000
0.172311 0.735141 0.035548
0.642205 0.079974 0.222713
0.645850 0.293339 0.353227
0.025208 0.596260 0.238108
0.860110 1.006335 0.713239
0.242456 0.974497 0.565583
0.646866 0.526639 0.484009
0.586511 0.933976 0.503009
0.326964 0.605011 0.150571
0.129062 0.026988 0.957050
0.715130 0.754122 0.343459
0.207165 0.834834 0.182366
0.095346 0.863286 0.964963
0.740281 0.317847 0.950960
0.123012 0.688123 0.387908
0.398019 0.476502 0.699405
0.290906 0.240855 0.963753
0.368539 0.929585 0.458334
0.244578 0.679279 0.902021
0.528066 0.326518 0.456788
0.163247 0.991403 0.684715
0.767360 0.717653 0.130610
0.334637 0.329531 0.039854
0.796504 0.818505 0.633054
0.217879 0.415110 0.359907
0.572250 0.994105 0.331974
0.332309 0.317446 0.044628
0.897638 0.582314 0.374516
0.525342 0.929540 0.317483
0.887237 0.344121 0.169172
0.117149 0.125443 0.445178
0.583025 0.110563 0.717699
0.929570 0.665054 0.517715
0.355871 0.824613 0.432950
0.308876 0.962099 0.348992
0.242672 0.677685 0.593212
0.528117 0.921985 0.479777
0.109532 0.566209 0.299164
0.723578 0.594244 0.955264
0.211864 0.428527 0.231536
0.286235 0.128428 0.807250
0.724455 0.084762 0.719086
0.341897 0.659731 0.309374
0.190516 0.571205 0.972683
0.788702 0.895559 0.668078
0.266859 0.706047 0.155871
0.226821 0.930996 0.828519
0.035107 0.919970 0.649728
0.075359 0.510688 0.082749
0.548344 0.428714 0.127224
0.618370 0.453276 0.552096
0.765101 0.064798 0.057419
0.549226 0.708836 0.809395
0.990778 0.443049 0.670673
0.536862 0.066252 0.151302
0.455848 0.641077 0.378499
0.648993 0.246125 0.349753
0.195922 0.471189 0.418081
0.647142 0.859491 0.627600
0.522454 0.092566 0.097426
0.670080 0.413394 0.278437
0.950162 0.523246 0.350632
0.208174 0.437919 0.855751
0.065726 0.323110 0.450447
0.644791 0.646220 0.403482
0.074075 0.150043 0.869781
-0.001905 0.910538 0.677051
0.970418 0.094737 0.357151
0.477022 0.176976 0.435152
0.392781 0.423529 0.718063
0.310107 0.231228 -0.005219
0.197027 0.464728 0.632567
0.466959 0.575613 0.439374
0.248551 0.395800 0.904118
0.037502 0.894050 0.642064
0.486278 0.439103 0.884641
0.253019 0.749376 0.144910
0.092068 0.976380 0.054149
0.926521 0.880350 0.834582
0.660306 0.856461 0.045410
0.454695 0.191569 0.934187
0.829313 0.179208 0.148423
0.384234 0.654696 0.352498
0.866232 0.365022 0.144066
0.331382 0.460563 0.720337
0.192109 0.808214 0.670977
0.066064 0.909498 0.372523
0.331902 0.111414 0.893598
0.283775 0.051765 0.431433
0.260554 0.362918 0.474210
0.338368 0.493864 0.091639
0.443917 0.650308 0.126597
0.410324 0.069381 0.688810
0.417436 0.242661 0.162986
0.987362 0.437149 0.676670
0.715246 0.822161 0.251493
0.293504 0.181213 0.741274
0.049890 0.166749 0.846474
0.078033 0.888675 0.566427
0.823094 0.569257 0.984952
0.831306 0.299537 0.023699
0.724036 0.345603 0.697883
0.469005 0.917019 0.952969
0.808210 0.858379 0.185814
0.152070 0.780072 0.751481
0.347932 0.312948 0.334154
0.579464 0.583297 0.857812
0.526023 0.399590 0.420648
0.281508 0.501778 0.972842
0.456593 0.153753 0.844155
0.414246 0.198966 0.070978
0.994932 0.648612 0.359605
0.570665 0.892545 0.133281
0.464407 0.262108 0.263042
0.690550 0.573149 0.725907
0.600771 0.961582 0.131375
0.467772 0.726638 0.953786
0.260643 0.351726 0.968107
0.331299 0.099602 0.426611
0.197417 0.633639 0.267315
0.536672 0.951767 0.441265
0.569225 0.430187 0.315524
0.099745 0.018851 0.702388
0.321264 0.585517 0.739725
0.784726 0.781643 0.941237
1.003384 0.383099 0.167842
0.103932 0.668713 0.042207
0.444158 0.931074 0.763868
0.606457 0.065766 0.253145
0.394804 0.951364 0.082691
0.627259 0.232231 0.151151
0.088929 0.350443 0.306273
0.907734 0.958559 0.081814
0.927187 0.568659 0.183770
0.285493 0.864340 0.169936
0.401831 0.451095 0.445159
0.437632 0.385620 0.725258
0.313335 0.575987 0.674077
0.410892 0.453226 0.029577
0.943719 0.783562 0.834709
0.442120 0.100852 0.585759
0.575757 0.218190 0.094401
0.772764 0.823544 0.237788
0.991836 0.764149 0.298024
0.696570 0.196717 0.570797
0.073631 0.003342 0.458504
0.099559 0.592376 0.500258
0.435738 0.276428 0.846334
0.373400 0.813674 0.821452
0.349182 0.062789 0.135220
0.487927 0.190766 0.088674
0.264057 0.055853 0.508967
0.081833 0.251406 0.738729
0.133846 0.995616 0.432711
0.369583 0.573935 0.454966
0.205214 0.104551 0.588002
0.375447 0.769799 0.914519
0.361675 0.262345 0.043271
0.165381 0.132773 0.221593
0.109660 0.660738 0.861774
0.340615 0.437966 0.990186
0.493223 0.425774 0.408526
0.870270 0.026347 0.232504
0.768409 0.029126 0.473234
0.540833 0.426883 0.090289
0.934885 0.614690 0.987413
0.040598 0.327381 0.414420
0.882903 0.461983 0.635883
0.338582 0.465741 0.912024
0.940143 0.904141 0.704380
0.427988 0.596568 0.075326
0.403255 0.579301 0.885429
0.680318 0.244036 0.725374
0.748376 0.406960 0.961770
0.248006 0.255697 0.398349
-0.001201 0.614980 0.390603
0.045186 0.903853 0.473274
0.679152 0.052139 0.060260
0.747802 0.682164 0.362621
0.990446 0.602697 0.555398
0.641891 0.582103 0.128890
0.729244 0.329866 0.785296
0.519171 0.952757 0.409362
0.964221 0.968261 0.841632
0.012734 0.949706 0.784290
0.148650 0.911891 0.925678
0.432092 0.337927 0.711958
0.668192 0.523502 0.546871
0.681012 0.714999 0.776668
