x y z
-0.351436 -0.880904 0.459981
-0.047870 -0.755549 0.185854
-0.767127 -0.356684 0.597582
-0.921720 -0.032112 0.758687
-0.855272 -0.664585 0.092509
-0.860093 -0.485759 0.646039
-0.650107 -0.667221 0.608047
-0.421218 -0.725391 0.869135
-0.988174 -0.158363 0.835813
-0.993728 -0.791733 0.972996
-0.740135 -0.321038 0.283379
-0.904121 -0.017398 0.284821
-0.137451 -0.097760 0.552011
-0.780494 -0.599221 0.797209
-0.270996 -0.463405 0.886225
-0.835866 -0.372289 0.870943
-0.940039 -0.669908 0.297324
-0.805156 -0.717692 0.257878
-0.122151 -0.798250 0.397232
-0.551570 -0.122603 0.382338
-0.286606 -0.451966 0.819397
-0.965669 -0.678363 0.300184
-0.993551 -0.936630 0.155673
-0.326538 -0.237136 0.706532
-0.073599 -0.775702 0.152898
-0.993339 -0.619607 0.200199
-0.930611 -0.941413 0.946912
-0.315109 -0.338303 0.784682
-0.915500 -0.632340 0.574237
-0.967814 -0.634948 0.050049
-0.234823 -0.017122 0.029658
-0.256487 -0.390170 0.250907
-0.910038 -0.718486 0.847001
-0.537996 -0.217421 0.827208
-0.662859 -0.278309 0.498480
-0.863959 -0.775506 0.214539
-0.983907 -0.620347 0.645840
-0.345300 -0.907180 0.994856
-0.112631 -0.385672 0.480453
-0.788510 -0.502389 0.778616
-0.778899 -0.177293 0.299455
-0.832439 -0.195199 0.552086
-0.377187 -0.866871 0.823702
-0.952913 -0.138857 0.705806
-0.132289 -0.430123 0.009529
-0.226973 -0.311541 0.751871
-0.720352 -0.625177 0.201652
-0.317615 -0.027819 0.487220
-0.427431 -0.635691 0.086917
-0.549235 -0.999929 0.765567
-0.661398 -0.581183 0.044188
-0.185136 -0.394232 0.361923
-0.769237 -0.350156 0.431206
-0.459625 -0.965551 0.697118
-0.937195 -0.484611 0.700730
-0.248962 -0.587188 0.450200
-0.008225 -0.574379 0.037411
-0.042091 -0.420244 0.345979
-0.647307 -0.538270 0.966220
-0.488373 -0.502736 0.823129
-0.785973 -0.278021 0.541549
-0.103078 -0.462721 0.073474
-0.835084 -0.410751 0.731913
-0.134599 -0.614660 0.332616
-0.881674 -0.758349 0.930542
-0.761752 -0.237529 0.874569
-0.781933 -0.933989 0.752313
-0.188274 -0.671290 0.151522
-0.118145 -0.287809 0.179326
-0.741977 -0.913183 0.640360
-0.827446 -0.469838 0.626489
-0.015605 -0.758263 0.025672
-0.386323 -0.149304 0.438889
-0.268484 -0.357730 0.550364
-0.769892 -0.449101 0.105279
-0.678820 -0.536760 0.645838
-0.062820 -0.264248 0.241872
-0.779217 -0.334881 0.814486
-0.354821 -0.518413 0.033124
-0.618066 -0.997002 0.892108
-0.001723 -0.920162 0.342906
-0.279445 -0.814324 0.406853
-0.159942 -0.812360 0.826920
-0.230953 -0.212009 0.967200
-0.591433 -0.748351 0.251270
-0.813021 -0.027844 0.846486
-0.190653 -0.099955 0.920663
-0.703403 -0.548869 0.981509
-0.136751 -0.604424 0.041358
-0.983047 -0.229008 0.806300
-0.822107 -0.292708 0.960811
-0.355648 -0.783780 0.205850
-0.733129 -0.095749 0.751290
-0.354392 -0.658564 0.121148
-0.788441 -0.828947 0.614365
-0.431672 -0.653268 0.954044
-0.717727 -0.313520 0.462917
-0.027285 -0.424210 0.994066
-0.840590 -0.077132 0.915953
-0.264935 -0.063596 0.125225
-0.871288 -0.560118 0.690311
-0.531915 -0.566434 0.771448
-0.384163 -0.855249 0.624919
-0.916260 -0.182778 0.050487
-0.602660 -0.757829 0.843829
-0.597883 -0.104944 0.282568
-0.835094 -0.075528 0.126374
-0.489792 -0.734189 0.380053
-0.438654 -0.768092 0.305748
-0.797171 -0.247581 0.740818
-0.891591 -0.637031 0.154009
-0.640817 -0.524307 0.112218
-0.796637 -0.378816 0.027073
-0.102538 -0.378084 0.023744
-0.681054 -0.740406 0.522241
-0.990974 -0.455039 0.923399
-0.286172 -0.373846 0.256693
-0.947111 -0.374452 0.897782
-0.248481 -0.881155 0.684225
-0.556307 -0.009553 0.217780
-0.181235 -0.228212 0.518813
-0.141225 -0.226884 0.176452
-0.791223 -0.078131 0.809579
-0.270371 -0.444323 0.501514
-0.952346 -0.197661 0.165137
-0.900603 -0.385673 0.210719
-0.580336 -0.463443 0.411885
-0.115879 -0.102363 0.512626
-0.089809 -0.123758 0.118165
-0.908542 -0.832943 0.465409
-0.637963 -0.893089 0.651047
-0.725909 -0.989477 0.739204
-0.092754 -0.383181 0.853165
-0.712648 -0.392402 0.071681
-0.342028 -0.963978 0.335808
-0.113056 -0.736247 0.491637
-0.385099 -0.433487 0.182616
-0.185266 -0.962820 0.042349
-0.192486 -0.205934 0.790057
-0.866334 -0.350978 0.303022
-0.698501 -0.411298 0.136976
-0.533117 -0.990125 0.073448
-0.325887 -0.698959 0.292179
-0.748277 -0.406017 0.516484
-0.592462 -0.455649 0.491602
-0.383731 -0.583872 0.152481
-0.854437 -0.097967 0.798702
-0.874849 -0.408024 0.516250
-0.710568 -0.792070 0.019627
-0.991009 -0.302406 0.285586
-0.795062 -0.115754 0.518305
-0.902757 -0.170107 0.062756
-0.362800 -0.837953 0.726032
-0.661839 -0.314036 0.315982
-0.055585 -0.228063 0.778925
-0.706615 -0.880171 0.439269
-0.742803 -0.293325 0.473282
-0.751780 -0.573274 0.546793
-0.852433 -0.670861 0.046856
-0.473026 -0.666719 0.989495
-0.158493 -0.333757 0.600728
-0.328282 -0.639971 0.768980
-0.999296 -0.488409 0.076081
-0.353799 -0.630671 0.267152
-0.905971 -0.830818 0.707299
-0.725092 -0.967366 0.724011
-0.924544 -0.187120 0.462124
-0.584007 -0.586949 0.853735
-0.905664 -0.323488 0.181664
-0.169229 -0.511106 0.263422
-0.088073 -0.535851 0.333281
-0.452115 -0.666448 0.766041
-0.358172 -0.811405 0.419372
-0.636030 -0.811067 0.854668
-0.241829 -0.165828 0.320178
-0.352766 -0.609374 0.752250
-0.506252 -0.698355 0.353055
-0.064128 -0.157425 0.581533
-0.308172 -0.276244 0.336326
-0.878303 -0.068138 0.461062
-0.508351 -0.979358 0.935281
-0.513341 -0.897808 0.785376
-0.847651 -0.767220 0.646022
-0.038263 -0.541008 0.146981
-0.957964 -0.156725 0.049540
-0.080509 -0.932939 0.060026
-0.711558 -0.816203 0.526492
-0.507830 -0.926854 0.872086
-0.892965 -0.694546 0.913234
-0.218466 -0.611445 0.679507
-0.209025 -0.008924 0.173018
-0.426273 -0.740586 0.713946
-0.645282 -0.937287 0.190959
-0.576636 -0.010939 0.169051
-0.889715 -0.569833 0.789011
-0.895006 -0.271080 0.259350
-0.526495 -0.111146 0.131101
-0.095567 -0.735606 0.710252
-0.696621 -0.602753 0.783189
-0.114646 -0.156043 0.686346
