x y z
0.681466 0.755359 0.715952
0.846887 0.999973 0.632255
0.915575 0.810663 0.682677
0.846490 0.008750 0.235192
0.301002 0.040847 0.765043
0.993545 0.220804 0.453241
0.773514 0.414344 0.330563
0.471063 0.517825 0.181418
0.976625 0.396940 0.987246
0.285947 0.459763 0.292588
0.395912 0.567395 0.403829
0.692441 0.907059 0.321965
0.421935 0.321523 0.493755
0.422994 0.023834 0.410274
0.835262 0.408217 0.638111
0.831765 0.130185 0.445662
0.678665 0.152985 0.370328
0.939050 0.376721 0.206338
0.318052 0.800423 0.678427
0.466842 0.784340 0.740066
0.031048 0.526390 0.978567
0.790885 0.586454 0.258067
0.561672 0.419642 0.347321
0.593731 0.869065 0.616553
0.321930 0.661646 0.923517
0.126701 0.615999 0.788315
0.016892 0.751739 0.446704
0.971612 0.700158 0.146225
0.701442 0.589460 0.304249
0.881812 0.423622 0.462537
0.175472 0.145379 0.162310
0.890923 0.461368 0.584418
0.880278 0.884965 0.312650
0.910949 0.642779 0.587330
0.323421 0.399160 0.259602
0.439546 0.142943 0.922830
0.239166 0.270498 0.017810
0.408809 0.035349 0.498458
0.332405 0.600453 0.371174
0.283701 0.765382 0.697235
0.481377 0.976129 0.926509
0.802690 0.661563 0.217348
0.145629 0.262572 0.912110
0.290699 0.840713 0.479308
0.135667 0.715885 0.812430
0.985851 0.791640 0.758178
0.347508 0.093634 0.896137
0.839317 0.104679 0.009124
0.577492 0.120265 0.695772
0.275928 0.353484 0.902746
0.236251 0.410338 0.435947
0.044851 0.214202 0.285281
0.883799 0.669147 0.140219
0.311464 0.339816 0.906723
0.264666 0.853647 0.739048
0.387922 0.642798 0.798243
0.260084 0.933643 0.262510
0.088333 0.770891 0.676487
0.612591 0.751217 0.663884
0.379889 0.080821 0.247606
0.385711 0.674293 0.252503
0.744926 0.878242 0.486252
0.308388 0.457681 0.393181
0.402184 0.645647 0.174953
0.297135 0.175355 0.710226
0.324421 0.347632 0.225543
0.049800 0.024737 0.229171
0.849631 0.762497 0.196552
0.968201 0.531265 0.812746
0.370799 0.004385 0.709552
0.270759 0.604744 0.819965
0.220327 0.801877 0.990281
0.102872 0.713900 0.966955
0.790717 0.518705 0.367324
0.628950 0.743939 0.609521
0.957755 0.772470 0.459400
0.533648 0.257039 0.870839
0.252117 0.594481 0.217879
0.904149 0.775041 0.033011
0.794950 0.442262 0.623615
0.427085 0.518792 0.217630
0.278401 0.920069 0.587909
0.789786 0.097998 0.979350
0.483229 0.868003 0.104702
0.935434 0.879934 0.412552
0.706160 0.022474 0.182377
0.344306 0.931844 0.458572
0.832227 0.068498 0.944136
0.240983 0.097563 0.003820
0.606607 0.640047 0.447250
0.784521 0.345997 0.513394
0.486374 0.950403 0.574486
0.513694 0.484504 0.208561
0.647518 0.749047 0.586772
0.425333 0.798486 0.795701
0.357952 0.151817 0.623085
0.224846 0.272964 0.050482
0.645942 0.108918 0.704674
0.634271 0.803833 0.230948
0.931687 0.855089 0.151765
0.046490 0.044172 0.186982
0.649710 0.278304 0.669584
0.103637 0.424117 0.475514
0.465909 0.872948 0.684588
0.298729 0.978108 0.462870
0.602245 0.011415 0.078694
0.754980 0.766906 0.227111
0.442604 0.539710 0.697503
0.945763 0.114477 0.868017
0.776342 0.352049 0.711087
0.436133 0.549479 0.528247
0.863118 0.003119 0.050816
0.238594 0.027452 0.008509
0.998163 0.985320 0.642328
0.428103 0.061862 0.210753
0.954293 0.053130 0.884584
0.419692 0.876134 0.702794
0.561241 0.960549 0.791502
0.754460 0.899911 0.150863
0.102200 0.192602 0.190059
0.565024 0.413631 0.410050
0.124134 0.248256 0.747355
0.006345 0.388372 0.103190
0.086762 0.413126 0.500636
0.412863 0.567582 0.831140
0.060759 0.905592 0.101425
0.680954 0.752902 0.391467
0.312865 0.967758 0.002506
0.038335 0.305192 0.037607
0.699295 0.643617 0.919542
0.066282 0.939750 0.468718
0.501067 0.511833 0.412661
0.206974 0.082072 0.898270
0.385312 0.425625 0.914098
0.508247 0.319010 0.234516
0.229401 0.669672 0.854442
0.857553 0.526494 0.298405
0.369728 0.784876 0.051205
0.754744 0.435683 0.643492
0.668834 0.989666 0.483690
0.074807 0.784409 0.887997
0.683474 0.507830 0.935880
0.952052 0.386862 0.616762
0.151732 0.589413 0.528187
0.496452 0.465905 0.036242
0.111443 0.931840 0.027649
0.574819 0.886166 0.408049
0.298088 0.988130 0.932257
0.943722 0.729013 0.569007
0.236109 0.647639 0.092356
0.715106 0.133381 0.147918
0.685138 0.398812 0.631287
0.628707 0.884522 0.937080
0.204988 0.903096 0.229469
0.035754 0.648416 0.119198
0.890625 0.385293 0.000526
0.360124 0.422110 0.330406
0.146268 0.554080 0.363647
0.907669 0.154525 0.951530
0.659128 0.662179 0.472902
0.285717 0.242128 0.373013
0.728717 0.733234 0.367304
0.692175 0.708755 0.411257
0.030632 0.030888 0.360561
0.945978 0.941125 0.145259
0.478078 0.380027 0.148263
0.796692 0.941005 0.147443
0.559250 0.969908 0.134555
0.195930 0.191978 0.943888
0.214434 0.172759 0.007895
0.349528 0.510397 0.361401
0.223328 0.841140 0.246842
0.580945 0.713450 0.655320
0.231563 0.561697 0.763057
0.610193 0.235003 0.988442
0.541564 0.782081 0.577372
0.846350 0.588813 0.814269
0.584846 0.627479 0.445709
0.318453 0.033968 0.442435
0.832280 0.178129 0.346677
0.346200 0.401572 0.616170
0.939220 0.710207 0.721201
0.617437 0.052911 0.155043
0.245842 0.615052 0.120812
0.085371 0.870096 0.573894
0.348763 0.193681 0.407031
0.885018 0.117754 0.253615
0.169991 0.398885 0.443087
0.191653 0.115247 0.020837
0.934626 0.286931 0.094893
0.557741 0.266210 0.489949
0.884992 0.311995 0.745475
0.612925 0.059197 0.005888
0.384652 0.051580 0.761775
0.185861 0.849051 0.759625
0.491286 0.343192 0.852116
0.309055 0.358666 0.095338
0.536255 0.157651 0.038721
0.698970 0.132843 0.398882
0.279750 0.683790 0.216907
