x y z
-0.452326 -0.076065 0.576522
-0.036266 -0.968922 0.758024
-0.960220 -0.935785 0.515368
-0.553391 -0.548455 0.940500
-0.582843 -0.443701 0.251854
-0.044597 -0.475282 0.922114
-0.010471 -0.899268 0.710376
-0.682446 -0.781861 0.028258
-0.289219 -0.729638 0.473268
-0.951081 -0.231820 0.290286
-0.503571 -0.944177 0.977942
-0.844240 -0.327457 0.746495
-0.104288 -0.052391 0.517988
-0.781265 -0.240119 0.820479
-0.227094 -0.107641 0.364198
-0.296777 -0.911034 0.778182
-0.027446 -0.061592 0.720733
-0.320669 -0.891429 0.226348
-0.050015 -0.133359 0.588548
-0.569942 -0.873931 0.852813
-0.299192 -0.736511 0.538180
-0.308938 -0.160632 0.324335
-0.928638 -0.190915 -0.011223
-0.964674 -0.936542 0.062408
-0.729524 -0.653915 0.068602
-0.882708 -0.232980 0.527195
-0.388679 -0.821089 0.187298
-0.652314 -0.021989 0.273822
-0.862107 -0.999583 0.858632
-0.135312 -0.594209 0.427086
-0.291998 -0.660851 0.421964
-0.496217 -0.605114 0.457861
-0.334959 -0.883724 0.434044
-0.596115 -0.219282 0.913636
-0.365087 -0.956319 0.112884
-0.847730 -0.551647 0.899495
-0.149800 -0.950835 0.809148
-0.635065 -0.433489 0.041862
-0.941021 -0.997598 0.628381
-0.851900 -0.800762 0.513414
-0.003980 -0.051032 0.102732
-0.720740 -0.097407 0.356893
-0.707657 -0.130906 0.329579
-0.937833 -0.612219 0.613054
-0.005653 -0.187611 0.073856
-0.013555 -0.419629 0.488690
-0.568748 -0.470967 0.499983
-0.199512 -0.415891 0.353610
-0.991377 -0.955655 0.045967
-0.755656 -0.328469 0.433338
-0.658909 -0.926184 0.919049
-0.712264 -0.784563 0.255042
-0.817720 -0.957324 0.647116
-0.176362 -0.446860 0.618397
-0.297304 -0.222058 0.134531
-0.616843 -0.636490 0.404290
-0.032870 -0.994495 0.547417
-0.719180 -0.545656 0.427116
-0.952944 -0.220503 0.346410
-0.173050 -0.780696 0.086818
-0.351848 -0.820089 0.071101
-0.852223 -0.102993 0.608075
-0.400546 0.010374 0.896930
-0.793669 -0.472243 0.240353
-0.409910 -0.831725 0.068897
-0.423042 -0.048134 0.038773
-0.758730 -1.010717 0.693924
-0.704009 -0.635642 0.328576
-0.149971 -0.436526 0.097483
-0.287188 -0.495521 0.480985
-0.924480 -0.507079 0.689095
-0.676902 -0.557569 0.911553
-0.019247 -0.579734 0.655797
-0.250446 -0.155426 0.442211
-0.473735 -0.921053 0.827746
-0.858393 -0.679107 0.587809
-0.820123 -0.235236 0.761404
-0.439868 -0.592589 0.098492
-0.586360 -0.656989 0.353822
-0.017998 -0.942365 0.126086
-0.786808 -0.804263 0.778690
-0.618677 -0.889847 0.910635
-0.031739 -0.523912 0.938713
-0.071504 -0.700092 0.809464
-0.659182 -0.322550 1.013644
-0.857950 -0.819863 0.983721
-0.084702 -0.813064 0.087604
-0.809965 -0.104162 0.120604
-0.506220 -0.697118 0.303328
-1.014129 -0.522259 0.521350
-0.061418 -0.327566 0.945285
-0.446533 -0.933865 0.867099
-0.959841 -0.114431 0.526250
-0.990391 -0.244899 0.624445
-0.441236 -0.188266 0.237925
-0.765285 -0.813148 0.874470
-0.358447 -0.190029 0.041168
-0.168763 -0.510626 0.615462
-0.633966 -0.630102 0.327227
-0.741847 -0.101840 0.968970
-0.155617 -0.093150 0.870847
-0.105368 -0.671397 0.486985
-0.030046 -0.117290 0.147227
-0.823628 -0.457043 0.071295
-0.711320 -0.364797 0.695639
-0.599807 -0.018798 0.523895
-0.482509 -0.225927 0.187455
-0.512501 -0.930537 0.511239
-0.144687 -0.672485 0.766643
-0.267827 -0.010337 0.167961
-0.038344 -0.658107 0.375146
-0.363228 -0.100551 0.920180
-0.808188 -0.959365 0.973588
-0.284785 -0.601019 0.570113
-0.743010 -0.311700 0.164337
-0.483816 -0.287707 0.141600
-0.668479 -0.886314 0.492131
-0.529305 -0.944600 0.809770
-0.145251 -0.183954 0.972431
-0.817499 -0.754478 0.704179
-0.704481 -0.963790 0.644853
-1.004564 -0.167849 0.307293
-0.192173 -0.540551 0.816887
-0.179044 -0.813424 0.428797
-0.005211 -0.263779 0.597590
-0.743336 -0.116891 0.074663
-0.305576 -0.069998 0.094304
-0.758088 -0.291337 0.050702
-0.972285 -0.688538 0.459722
-0.948509 -0.400688 0.845331
-0.583131 -0.650830 0.439050
-0.409531 -0.227975 0.133746
-0.864465 -0.114683 0.204777
-0.167346 -0.947713 0.346984
-0.670044 -0.380484 0.395676
-0.483031 -0.875086 0.498913
-0.355024 -0.687276 0.843253
-0.155176 -0.118734 0.949535
-0.485435 -0.439643 0.119557
0.002477 -0.122507 0.180900
-0.596687 -0.593793 0.215689
-0.299731 -0.685917 0.805305
-0.641146 -0.246267 0.440359
-0.505024 -0.653007 0.512140
-0.546499 -0.489747 0.381770
-0.499804 -0.701621 0.650435
-0.813755 -0.240334 0.521682
-0.866192 -0.400573 0.761564
-0.089939 -0.052073 0.958684
-0.121629 -0.927139 0.713472
0.009374 -0.004713 0.823889
-0.117324 -0.283944 0.852724
-0.176477 -0.219840 0.216812
-0.065252 -0.763864 0.542429
0.016725 -0.037629 0.081780
-0.067125 -0.950128 0.819025
-0.663789 -0.262355 0.322204
-0.063126 -0.246388 0.557660
-0.296467 -0.706735 0.001682
-0.090697 -0.372960 0.340971
-0.158656 -0.244405 0.339866
-0.720202 -0.615292 0.730443
-0.528399 -0.714206 0.214403
-0.120738 -0.813695 0.341500
-0.367783 -0.544662 0.497762
-0.338859 -0.670261 0.568107
-0.484988 -0.944281 0.060096
-0.522184 -0.036185 0.824366
-0.151033 -0.034249 0.443077
-0.181694 -0.056072 0.950325
-0.830038 -0.563401 0.643929
-0.758932 -0.800589 0.858197
-0.983704 -0.390682 0.429923
-0.135627 -0.297835 0.312390
-0.182156 -0.436417 0.242151
-0.978833 -0.921049 0.078310
-0.141340 -0.801670 0.108118
-0.149010 -0.253479 0.380049
-0.206156 -0.413408 0.908919
-0.479514 -0.353397 0.836763
-0.172743 -0.581832 0.486154
-0.064709 -0.224664 0.756308
-0.187952 -0.715412 0.061955
-0.922372 -0.813721 0.967114
-0.268076 -0.756844 0.756166
-0.069684 -0.518454 0.025259
-0.174094 -0.780500 0.226977
-0.932027 -0.534382 0.119223
-0.366857 -0.243802 0.621569
-0.467548 -0.602859 0.410834
-0.995392 -0.490387 0.453475
-0.240556 -0.513785 0.061122
-0.739789 -0.720039 0.177909
-0.670053 -0.248736 0.938780
-0.039669 -0.190646 0.947678
-0.535141 -0.348185 0.394464
-0.407899 -0.705782 0.817061
-0.886481 -0.956917 0.557428
-0.439772 -0.885397 0.264499
-0.836354 -0.277794 0.666390
