x y z
0.385053 0.980880 0.292536
0.907681 0.385001 0.565499
0.399944 0.328431 0.552509
0.104434 0.669299 0.242292
0.915964 0.375840 0.544857
0.390401 0.613570 0.507395
0.651509 0.820743 0.574366
0.084729 0.118183 0.268454
0.592631 0.053883 0.564675
0.787774 0.267737 0.189904
0.175453 0.094254 0.346342
0.265944 0.605347 0.760640
0.647880 0.012040 0.382759
0.843788 0.115486 0.520399
0.159533 0.530765 0.616420
0.733203 0.910176 0.561805
0.726060 0.192024 0.105157
0.878184 0.403189 0.513558
0.630680 0.746112 0.535142
0.819578 0.292454 0.238492
0.760993 0.123748 0.064189
0.118031 0.675890 0.844073
0.026901 0.987717 0.864284
0.181445 0.120501 0.950136
0.617369 0.410337 0.847679
0.615270 0.553271 0.666038
0.190489 0.690162 0.362811
0.342997 0.104794 0.110711
0.887550 0.248686 0.431794
0.160715 0.909457 0.260334
0.472616 0.252248 0.311334
0.340141 0.363466 0.194586
0.313386 0.348111 0.901061
0.485310 0.677919 0.882672
0.612103 0.825261 0.770529
0.913962 0.282886 0.475277
0.026500 0.674861 0.486352
0.163762 0.530583 0.386734
0.429500 0.722577 0.171906
0.655762 0.535802 0.355314
0.533432 0.282324 0.618158
0.282538 0.004764 0.060803
0.258253 0.918132 0.307913
0.060757 0.847614 0.859157
0.895205 0.662224 0.577254
0.545029 0.952226 0.790579
0.051568 0.677784 0.537674
0.669936 0.924510 0.004713
0.776151 0.676056 0.271382
0.358563 0.642444 0.229451
0.142735 0.203992 0.040359
0.294297 0.883657 0.276592
0.337752 0.639519 0.551266
0.715236 0.100132 0.972013
0.027174 0.818182 0.304397
0.444751 0.622159 0.446395
0.603192 0.432529 0.596850
0.818906 0.114818 0.571084
0.072828 0.463428 0.536376
0.526379 0.181352 0.709764
0.520690 0.367899 0.080640
0.786706 0.601774 0.995330
0.793148 0.127349 0.561776
0.285355 0.151478 0.848154
0.382767 0.182560 0.541245
0.507942 0.942876 0.499405
0.105301 0.267076 0.037283
0.512897 0.742594 0.806360
0.690357 0.217588 0.373303
0.704362 0.823308 0.507449
0.760654 0.149392 0.080277
0.524727 0.938818 0.154726
0.074138 0.273039 0.633277
0.682358 0.268137 0.725248
0.555031 0.641629 0.730154
0.024025 0.692665 0.445798
0.503317 0.185135 0.594294
0.866580 0.305682 0.090835
0.623370 0.450027 0.560769
0.525956 0.875801 0.918258
0.676827 0.510905 0.981019
0.980954 0.412954 0.773095
0.034056 0.822047 0.203247
0.944695 0.421980 0.097987
0.915541 0.851700 0.462155
0.884394 0.481339 0.657726
0.921945 0.800725 0.192283
0.944413 0.550710 0.435312
0.171013 0.036882 0.426531
0.778494 0.796739 0.587536
0.317069 0.955271 0.485336
0.953691 0.475294 0.476787
0.714698 0.475514 0.426559
0.126802 0.307124 0.199892
0.719520 0.461594 0.028392
0.271109 0.995160 0.849848
0.231486 0.900633 0.732343
0.586355 0.809762 0.417751
0.532593 0.388397 0.875403
0.602984 0.950245 0.857584
0.438510 0.525597 0.440340
0.833038 0.778654 0.914607
0.509597 0.854415 0.566265
0.695783 0.339384 0.927199
0.479575 0.972365 0.252527
0.256886 0.333620 0.357617
0.543761 0.650789 0.224231
0.385467 0.496492 0.501877
0.757533 0.446914 0.295653
0.890055 0.059670 0.402616
0.007723 0.495814 0.651790
0.946051 0.278948 0.434220
0.062425 0.921225 0.393938
0.939606 0.798990 0.486473
0.404749 0.191358 0.743081
0.176350 0.550457 0.921851
0.989717 0.632434 0.491854
0.344173 0.696256 0.281732
0.233190 0.180259 0.001366
0.047541 0.490885 0.590291
0.319917 0.589515 0.601733
0.138201 0.998949 0.396527
0.344277 0.316204 0.765051
0.042348 0.158680 0.781641
0.077484 0.123783 0.807925
0.440005 0.913874 0.760376
0.825657 0.357259 0.806776
0.343002 0.573911 0.305560
0.415791 0.742556 0.500688
0.128611 0.051354 0.079374
0.413690 0.706532 0.933180
0.774874 0.702488 0.037529
0.034696 0.595206 0.762738
0.867927 0.539964 0.251367
0.876718 0.080990 0.618492
0.023562 0.490135 0.876278
0.483084 0.101895 0.462766
0.477972 0.515489 0.395877
0.874863 0.127220 0.473518
0.963092 0.005856 0.112901
0.232577 0.518446 0.053375
0.840419 0.878964 0.518348
0.263606 0.749252 0.717659
0.927133 0.655666 0.759166
0.713037 0.810547 0.135590
0.825591 0.742044 0.035802
0.070754 0.076353 0.308552
0.532421 0.791129 0.357036
0.643233 0.698410 0.273012
0.017331 0.215545 0.583313
0.930208 0.170553 0.756136
0.783474 0.469449 0.325452
0.505528 0.852753 0.389916
0.894551 0.413988 0.111428
0.029558 0.241890 0.952191
0.024068 0.890703 0.867194
0.535178 0.226161 0.244352
0.215408 0.386721 0.485731
0.573127 0.106702 0.715511
0.717528 0.261023 0.879533
0.288068 0.734257 0.172718
0.663971 0.692282 0.935264
0.630784 0.432120 0.689362
0.361192 0.007925 0.675089
0.272452 0.831667 0.047698
0.904902 0.887896 0.097407
0.346901 0.863310 0.091633
0.291796 0.256121 0.366836
0.848299 0.388745 0.825367
0.094789 0.345952 0.438684
0.997351 0.925576 0.607679
0.222760 0.794444 0.817662
0.059619 0.334933 0.160119
0.767092 0.946179 0.499457
0.498471 0.834588 0.294508
0.048070 0.974798 0.967828
0.430772 0.580675 0.142738
0.453199 0.688752 0.053652
0.665981 0.664491 0.648406
0.290274 0.810935 0.078594
0.511116 0.459561 0.470156
0.423390 0.771973 0.598644
0.067461 0.213011 0.856975
0.413736 0.720763 0.315609
0.727560 0.556780 0.306109
0.882613 0.587581 0.697889
0.707888 0.002806 0.585086
0.154893 0.071857 0.356845
0.796606 0.898715 0.108735
0.330722 0.209967 0.417834
0.891973 0.952020 0.599125
0.575499 0.173855 0.323566
0.331848 0.563398 0.934705
0.871331 0.292268 0.454831
0.844717 0.281144 0.080063
0.282852 0.929783 0.433114
0.777834 0.330117 0.136007
0.560431 0.898318 0.177873
0.658075 0.126723 0.698187
0.763125 0.035439 0.855102
