x y z
0.103732 0.477531 0.411519
-0.381915 -0.331129 0.636309
-0.455362 0.211415 0.770733
-0.490101 0.108758 0.587183
0.320481 -0.368871 0.124331
-0.154477 -0.464750 0.911325
-0.390305 0.319533 0.424297
-0.504206 0.023604 0.615954
0.370788 0.326290 0.884937
0.380240 0.340903 0.554135
-0.045770 -0.484999 0.753139
-0.455240 -0.186177 0.392839
0.330877 0.357370 0.178081
0.465483 -0.149086 0.648801
0.070822 -0.490115 0.781467
-0.040868 -0.506887 0.221593
-0.308008 0.388865 1.000556
0.498349 0.077879 0.612962
-0.148863 0.487492 0.338117
-0.406106 -0.289007 0.935733
-0.516529 -0.026556 0.733325
-0.479843 0.135925 0.531526
-0.417217 0.277792 0.609602
-0.346269 0.345701 0.197729
0.080673 -0.487193 0.883078
0.495950 0.099422 0.738880
-0.507408 0.073475 0.856642
0.240561 -0.448859 0.750893
0.184658 0.452496 0.422275
0.262747 -0.439399 0.605149
0.095292 -0.495874 0.047127
-0.477867 -0.157307 0.055630
0.310042 0.383322 0.651732
-0.143243 -0.468548 0.874330
-0.395797 -0.299835 0.134632
-0.455071 0.236996 0.947133
0.036375 0.523893 0.749512
0.360250 -0.359317 0.731046
-0.503158 -0.113605 0.417023
-0.363904 0.328111 0.395078
0.055050 0.504310 0.504695
-0.189508 0.448763 0.942486
0.488657 -0.044854 0.753715
-0.322786 0.365628 0.507504
-0.466188 0.201700 0.161500
0.104661 0.499682 0.775650
0.067444 0.495495 0.143752
0.049421 0.491876 0.165850
-0.502242 -0.092526 0.068986
-0.164236 0.472899 0.952222
0.293010 0.411606 0.796602
-0.021433 -0.495039 0.421837
-0.280217 -0.420121 0.096509
0.491078 -0.025432 0.327004
0.457882 -0.167355 0.887246
0.117054 0.489883 0.500412
0.466197 -0.170214 0.181817
-0.317401 -0.373683 0.303632
0.302149 0.403884 0.499551
-0.330712 -0.388840 0.425727
0.220125 -0.452022 0.814572
0.451716 -0.211241 0.687083
0.011693 0.484555 0.076913
0.118786 0.492115 0.765029
0.410635 -0.295575 0.228403
0.289109 0.417375 0.700765
0.447034 -0.240834 0.565338
0.399967 0.293532 0.954724
-0.498343 -0.009313 0.368955
0.189623 -0.459438 0.636569
-0.463713 -0.169169 0.675412
0.141654 0.466478 0.919543
-0.505219 0.048469 0.924450
-0.317167 -0.375199 0.348044
-0.497486 -0.069464 0.903262
-0.389654 0.308820 0.339893
0.401908 -0.313435 0.325313
0.215587 0.460336 0.867044
-0.070184 -0.496790 0.620440
0.335507 0.349215 0.014910
0.343663 -0.357676 0.063402
-0.020046 -0.499544 0.259428
-0.304134 0.416965 0.284063
0.286392 0.425744 0.459925
-0.430242 0.268182 0.947306
0.485694 -0.129826 0.269805
0.463180 0.181023 0.103070
-0.117767 -0.477323 0.280815
0.150459 -0.463561 0.350723
-0.314941 -0.382087 0.976461
0.013036 -0.523833 0.105169
0.489387 -0.037200 0.662052
-0.159263 -0.479566 0.609289
-0.389121 0.296081 0.450274
-0.479126 -0.168052 0.232151
0.235425 0.448913 0.940546
-0.518173 -0.034532 0.577443
0.473027 0.089169 0.529440
-0.490898 0.031340 0.344994
0.500782 0.108034 0.786303
-0.468622 -0.199473 0.100477
0.449302 0.190001 0.735468
-0.433198 0.240427 0.636498
0.393403 0.321791 0.823046
-0.495414 0.155225 0.719527
-0.506702 0.081474 0.016936
-0.510710 -0.014080 0.911471
-0.452292 -0.236240 0.053647
-0.127053 0.465331 0.348956
0.290524 -0.411605 0.376052
0.452146 0.230701 0.213896
-0.173307 -0.465227 0.778138
0.198213 0.439709 0.528898
0.273207 -0.420911 0.543458
0.061949 -0.499158 0.807793
0.485244 0.021126 0.582460
0.386206 -0.323898 0.117842
-0.112979 0.494547 0.322100
-0.265319 0.405577 0.773973
-0.203535 0.462747 0.741816
-0.319531 0.384864 0.706130
-0.055245 0.481064 0.307477
-0.002961 0.482650 0.346907
-0.263458 -0.434910 0.499844
-0.496791 0.031361 0.388830
-0.470357 -0.164189 0.082141
-0.179488 -0.486156 0.060235
-0.502554 -0.005519 0.523893
0.142058 0.477391 0.839848
0.140790 0.469122 0.738813
0.474095 0.113442 0.353275
-0.155135 -0.484436 0.932234
-0.491313 0.042828 0.628108
0.116357 0.512207 0.107754
0.332648 -0.376410 0.016283
-0.492737 0.062721 0.670563
0.474217 0.187533 0.138844
-0.461293 0.234987 0.043034
0.095627 0.493712 0.078979
-0.115408 0.487367 0.062058
0.295121 0.402346 0.503007
0.145692 0.487573 0.520557
-0.461012 0.187373 0.943325
-0.119248 0.483467 0.623695
-0.127890 -0.473486 0.412638
-0.024246 0.509550 0.112608
-0.077456 0.498171 0.786969
-0.460880 0.179943 0.397723
0.516920 0.019754 0.741988
-0.141246 -0.472868 0.359301
0.463977 -0.172579 0.546537
-0.457034 0.206017 0.077981
0.276313 0.432836 0.329042
0.343550 0.371105 0.625725
0.444077 -0.230702 0.440628
-0.493076 0.024292 0.400908
-0.436445 -0.283814 0.676128
-0.208352 0.490138 0.377606
-0.494566 0.048922 0.038121
-0.284398 -0.410179 0.811081
-0.196515 0.447839 0.972869
-0.489735 0.075889 0.012449
-0.090259 0.490291 0.211138
-0.485211 -0.175610 0.440800
-0.492633 -0.091017 0.105887
0.368754 0.341220 0.826715
0.460038 0.180455 0.907203
0.290040 0.412223 0.777161
-0.402901 0.333393 0.876079
-0.098338 -0.483188 0.428790
-0.435783 -0.203426 0.331185
-0.449359 0.216420 0.214457
-0.110611 0.478821 0.131581
0.234666 0.462620 0.689242
-0.063335 -0.490630 0.342134
0.278945 -0.401574 0.148121
-0.469110 -0.166879 0.567667
0.009005 -0.515895 0.623192
0.470020 0.110881 0.833610
-0.001277 0.481770 0.456054
0.476389 -0.058370 0.264706
0.082796 0.492102 0.732386
0.405292 0.275401 0.253078
-0.499795 0.083345 0.629668
0.444354 -0.234792 0.151955
0.171427 -0.473037 0.384697
0.156516 -0.480183 0.240944
-0.172262 0.453746 0.892672
0.491317 -0.059607 0.542782
-0.001863 -0.520004 0.497210
-0.494115 0.098197 0.288781
-0.356012 -0.355313 0.296948
-0.206004 -0.459364 0.450940
-0.459717 0.189813 0.076502
0.499297 -0.079731 0.497078
0.441795 0.232383 0.263595
-0.436306 0.256347 0.939744
-0.409236 -0.280036 0.405839
0.483193 -0.121091 0.436009
0.421984 -0.292478 0.909743
