x y z
0.127680 0.483423 0.870415
0.499658 -0.018496 0.809386
-0.319518 -0.384589 0.630201
-0.481213 0.135771 0.258516
-0.299357 0.400481 0.576414
-0.493827 0.078324 0.218194
0.329071 0.376447 0.611586
-0.491497 -0.091821 0.309023
0.150196 -0.476908 0.507907
-0.223082 -0.447475 0.672149
-0.496606 0.058157 0.691743
-0.430546 0.254224 0.261283
0.068801 0.495244 0.825608
-0.497845 -0.046367 0.368416
0.361879 0.345027 0.731355
0.474459 -0.157762 0.763570
-0.463158 -0.188373 0.695984
-0.419750 0.271680 0.213348
0.244813 0.435966 0.768382
0.026994 0.499271 0.221791
-0.457018 -0.202817 0.399837
0.111955 0.487305 0.798395
-0.091275 -0.491598 0.952121
0.243396 -0.436759 0.896105
-0.258467 -0.428013 0.542535
-0.194828 0.460480 0.703503
-0.238650 -0.439370 0.917355
-0.384821 -0.319238 0.905507
0.412551 -0.282491 0.728433
-0.392788 0.309383 0.467397
0.258543 0.427967 0.078241
-0.398956 0.301387 0.902698
0.335698 -0.370549 0.235092
0.113649 -0.486913 0.276224
0.357102 -0.349969 0.160823
-0.188916 -0.462937 0.756729
0.194947 -0.460430 0.931929
-0.475654 -0.154123 0.094200
-0.036822 0.498642 0.079867
0.290995 0.406598 0.447376
0.452040 0.213682 0.525221
0.178301 -0.467128 0.452781
-0.468023 -0.175940 0.877929
0.005680 0.499968 0.692997
0.057832 0.496644 0.689658
-0.450458 0.216997 0.484850
0.265423 -0.423734 0.225726
-0.062446 0.496085 0.310402
0.448753 0.220502 0.476825
-0.356653 -0.350426 0.338038
-0.387856 -0.315544 0.452213
0.486713 -0.114502 0.590045
0.295103 -0.403626 0.509743
-0.158216 -0.474308 0.384332
0.488010 0.108840 0.349336
-0.497873 0.046076 0.237460
-0.429039 -0.256760 0.505726
0.308598 0.393405 0.762378
-0.149469 0.477136 0.574140
0.485678 0.118816 0.978863
0.031949 -0.498978 0.691510
0.471666 0.165925 0.698244
0.200154 -0.458190 0.374547
-0.400259 0.299654 0.762481
0.428211 -0.258138 0.157968
0.097632 -0.490375 0.298526
-0.476291 -0.152143 0.399143
-0.465005 0.183768 0.178028
0.486126 -0.116967 0.280597
-0.432056 0.251649 0.863941
-0.173126 0.469071 0.254142
0.165984 -0.471645 0.432586
0.406139 -0.291636 0.712131
-0.030710 0.499056 0.667720
-0.495249 0.068762 0.726228
0.275265 -0.417408 0.276181
-0.395075 -0.306457 0.927824
0.206294 0.455459 0.643645
0.499983 0.004136 0.914044
0.405016 -0.293193 0.364156
-0.124877 -0.484155 0.345259
-0.454764 -0.207821 0.312997
-0.500000 0.000599 0.899181
-0.464538 -0.184943 0.233147
-0.494071 0.076773 0.912322
0.220799 -0.448606 0.690552
-0.412285 0.282881 0.964433
0.499417 0.024132 0.678650
0.452737 -0.212200 0.245916
0.166372 0.471509 0.399937
-0.050985 0.497394 0.912993
-0.179818 -0.466546 0.143071
-0.331663 -0.374165 0.231562
-0.008807 0.499922 0.916283
0.380811 -0.324011 0.752472
-0.162921 0.472712 0.891754
-0.429043 0.256753 0.249018
0.328371 0.377058 0.657468
0.285559 -0.410434 0.902900
-0.406301 -0.291410 0.199805
0.114378 -0.486742 0.400493
0.498805 -0.034555 0.269040
0.315007 0.388292 0.947480
-0.398798 -0.301596 0.066791
-0.185206 -0.464434 0.007240
0.410081 0.286065 0.975742
0.017588 -0.499691 0.075599
0.341191 -0.365498 0.337273
0.205656 -0.455747 0.097692
-0.418043 -0.274300 0.430344
0.437834 -0.241456 0.303865
-0.499816 -0.013569 0.536771
0.001554 -0.499998 0.849762
-0.044440 0.498021 0.721431
-0.427604 0.259143 0.334228
-0.099938 0.489911 0.796009
0.491714 -0.090648 0.033164
0.406515 0.291111 0.232054
0.475325 -0.155134 0.284750
0.390653 -0.312074 0.804553
-0.451683 -0.214435 0.640208
-0.469264 -0.172600 0.708822
-0.491358 0.092562 0.774620
0.495201 -0.069109 0.906296
0.133139 -0.481948 0.293856
-0.376064 0.329508 0.055101
0.477645 -0.147835 0.245606
-0.309883 0.392394 0.126594
-0.495998 -0.063136 0.081118
-0.442862 -0.232106 0.604920
-0.296752 -0.402416 0.977540
-0.197993 -0.459128 0.403754
-0.466353 -0.180318 0.030317
0.402064 0.297228 0.324212
-0.236454 -0.440556 0.993264
0.024522 -0.499398 0.735667
-0.136926 -0.480886 0.384752
0.014221 0.499798 0.498585
0.101439 -0.489602 0.127328
-0.499371 0.025062 0.654266
-0.130698 0.482616 0.357868
0.499926 0.008599 0.175182
0.043053 -0.498143 0.947803
0.450561 0.216783 0.555436
-0.473188 -0.161535 0.161544
-0.101503 0.489589 0.224092
0.290564 0.406906 0.663553
-0.002460 0.499994 0.205802
-0.302194 0.398345 0.906897
-0.419277 -0.272409 0.327881
-0.400663 0.299114 0.532578
-0.249592 -0.433248 0.809832
-0.363966 -0.342825 0.795337
-0.335791 0.370465 0.557977
0.032847 -0.498920 0.267944
0.287698 0.408938 0.040866
0.047162 -0.497771 0.617025
-0.035353 0.498749 0.207879
-0.266046 -0.423343 0.883312
-0.248464 0.433896 0.126146
0.247133 -0.434655 0.645206
0.078844 -0.493744 0.706766
0.371012 0.335187 0.489687
0.499833 -0.012931 0.924350
0.305630 0.395715 0.476039
0.025805 0.499334 0.075129
0.413542 0.281039 0.148745
0.249013 0.433581 0.938750
-0.474394 0.157956 0.127693
-0.468619 0.174346 0.053770
0.246081 -0.435252 0.145269
0.413458 -0.281162 0.150916
-0.493039 -0.083140 0.656702
-0.472538 -0.163425 0.243557
0.487545 -0.110907 0.634025
0.207570 -0.454879 0.938851
0.446180 0.225662 0.910322
-0.448208 -0.221607 0.916908
0.011089 0.499877 0.343949
-0.359267 -0.347746 0.625676
-0.162870 -0.472730 0.256014
-0.211670 -0.452986 0.415396
-0.001513 -0.499998 0.279760
-0.498219 -0.042168 0.123753
-0.443957 0.230004 0.815905
-0.373203 0.332745 0.529511
-0.232977 -0.442405 0.239348
-0.383705 -0.320578 0.015379
0.357224 0.349845 0.391606
-0.186022 0.464108 0.292004
-0.498498 -0.038720 0.067919
0.490370 -0.097658 0.428823
-0.467042 -0.178528 0.291748
-0.397825 -0.302879 0.532829
-0.441374 0.234923 0.871619
0.487148 -0.112636 0.381485
-0.194154 0.460765 0.586621
0.369209 -0.337171 0.210484
0.283976 0.411531 0.981078
0.348617 -0.358422 0.881440
