x y z
-0.095470 0.490801 0.682047
-0.166437 -0.471486 0.080740
-0.497633 -0.048590 0.637901
0.160448 0.473557 0.525334
-0.160551 -0.473522 0.408584
-0.115365 0.486509 0.536448
0.451418 -0.214992 0.394053
0.385751 -0.318114 0.245596
0.345697 -0.361239 0.253178
-0.380570 0.324294 0.031468
0.386506 -0.317196 0.363799
0.174864 -0.468426 0.632173
-0.398507 -0.301981 0.492825
0.411169 -0.284499 0.046204
0.497758 0.047291 0.045031
0.367687 -0.338831 0.570967
0.472920 -0.162316 0.833655
0.102108 0.489463 0.659799
0.499365 -0.025186 0.127215
-0.480642 0.137779 0.794063
0.236312 -0.440632 0.605614
0.430917 0.253595 0.129204
0.428060 0.258389 0.307894
0.466084 0.181014 0.164859
-0.265784 0.423508 0.897333
-0.352830 -0.354276 0.411486
0.158928 -0.474069 0.038254
-0.334612 -0.371531 0.819157
-0.499819 -0.013440 0.457784
0.457042 -0.202763 0.370546
-0.410053 0.286106 0.165388
-0.220710 0.448650 0.457142
-0.499135 -0.029395 0.986090
0.491072 0.094065 0.000023
-0.496785 0.056613 0.327340
-0.432575 -0.250757 0.388367
-0.468292 -0.175221 0.190972
0.210429 0.453563 0.764844
-0.294570 -0.404015 0.029541
0.498520 -0.038438 0.492395
0.043798 0.498078 0.627067
0.497885 0.045939 0.076109
-0.156160 -0.474988 0.788049
0.179498 -0.466670 0.856876
0.448730 0.220548 0.524665
0.258162 0.428197 0.999058
0.284216 0.411365 0.502525
0.081893 0.493248 0.381631
-0.491203 -0.093378 0.674419
0.362555 0.344316 0.546857
-0.037670 -0.498579 0.173659
0.484146 0.124910 0.909979
0.096761 0.490548 0.566783
-0.473100 -0.161791 0.649933
0.465241 -0.183169 0.591679
-0.177074 0.467595 0.102340
0.477922 -0.146938 0.289906
0.467853 0.176390 0.837588
0.034767 -0.498790 0.559912
0.366330 0.340298 0.111616
-0.138980 0.480296 0.935657
0.155441 0.475224 0.861859
-0.499787 0.014593 0.279166
-0.413968 0.280412 0.910884
0.480374 -0.138710 0.654881
-0.390816 -0.311869 0.264414
-0.368244 -0.338225 0.737002
-0.497956 0.045167 0.452232
-0.036945 -0.498633 0.243263
-0.491504 -0.091781 0.715483
-0.202683 0.457077 0.685973
-0.062157 0.496122 0.658850
0.275590 -0.417193 0.910227
0.479125 0.142965 0.161356
0.398393 0.302131 0.680315
-0.092993 -0.491276 0.301899
0.479598 0.141370 0.134560
0.201527 -0.457588 0.445907
-0.050812 -0.497411 0.462653
0.394838 0.306762 0.512619
-0.495634 0.065932 0.025831
-0.207889 -0.454733 0.830354
-0.124814 -0.484171 0.959520
0.324789 0.380148 0.226491
-0.360847 0.346106 0.988967
0.408971 -0.287651 0.534643
0.182031 0.465687 0.557132
-0.463019 0.188715 0.030493
-0.179281 -0.466753 0.218549
-0.464428 0.185222 0.705776
-0.169877 0.470257 0.894397
0.444262 0.229415 0.715950
-0.380055 -0.324897 0.275227
0.499979 0.004625 0.099806
0.354532 -0.352572 0.355592
0.494473 -0.074138 0.582524
0.461794 -0.191694 0.052976
-0.114737 -0.486657 0.669378
0.006342 -0.499960 0.765327
0.483202 -0.128514 0.755067
0.342205 -0.364549 0.878779
-0.391454 -0.311069 0.211223
-0.497113 0.053651 0.923326
0.205377 0.455873 0.041517
-0.285249 0.410649 0.742179
0.497449 0.050439 0.528260
0.430523 0.254263 0.276642
-0.059421 0.496457 0.942465
-0.186690 -0.463839 0.118114
-0.140919 0.479731 0.973287
-0.340529 -0.366114 0.791461
0.465302 -0.183014 0.811436
-0.048896 0.497603 0.476988
-0.139661 -0.480099 0.760060
-0.127313 -0.483520 0.383981
-0.067814 0.495380 0.757610
0.204418 -0.456304 0.859997
0.470046 0.170461 0.837776
0.471802 0.165539 0.220707
0.251937 -0.431889 0.801538
-0.301681 0.398734 0.748694
0.065986 -0.495627 0.596773
0.473731 -0.159934 0.174660
-0.496354 -0.060270 0.469399
0.175645 -0.468133 0.736512
-0.494953 0.070861 0.520739
0.190175 -0.462421 0.443292
0.486084 -0.117141 0.083204
-0.187099 0.463674 0.495751
0.361076 0.345867 0.346331
0.499279 0.026851 0.078548
-0.008624 -0.499926 0.378647
0.084050 -0.492885 0.729532
0.258020 -0.428282 0.064641
-0.356659 -0.350421 0.057858
0.474633 0.157237 0.505411
-0.287577 0.409023 0.638146
-0.184419 -0.464747 0.917665
-0.122662 0.484721 0.131039
0.399916 0.300112 0.689684
0.106343 0.488560 0.236704
0.235630 0.440997 0.984854
-0.282970 -0.412223 0.421749
-0.359876 -0.347115 0.726260
-0.490349 0.097764 0.075575
-0.472132 0.164595 0.398685
0.236891 -0.440321 0.286631
-0.005836 0.499966 0.165571
0.100654 0.489764 0.084506
-0.010588 0.499888 0.426854
0.496986 0.054813 0.921900
-0.066517 0.495556 0.798036
0.031404 0.499013 0.011201
-0.498772 -0.035025 0.553156
0.496554 0.058602 0.374039
0.499698 -0.017376 0.512086
0.484545 0.123354 0.237207
0.486754 -0.114328 0.964761
-0.451415 0.214998 0.363638
-0.499819 0.013440 0.456473
0.483047 -0.129093 0.850831
-0.464554 -0.184905 0.718213
0.006549 0.499957 0.409947
-0.278928 -0.414969 0.916572
0.111931 0.487310 0.365284
-0.096983 -0.490504 0.642306
0.474218 0.158486 0.758774
-0.448727 0.220554 0.731007
0.421283 0.269296 0.110126
-0.142035 0.479402 0.418107
0.299950 0.400038 0.053350
0.453742 -0.210044 0.635184
-0.083791 -0.492929 0.689740
-0.398754 0.301654 0.593396
0.499680 0.017897 0.214782
-0.499689 -0.017625 0.735270
-0.479645 -0.141212 0.451451
-0.232861 0.442465 0.174652
-0.184585 0.464681 0.567613
-0.339078 0.367459 0.220416
0.362731 -0.344131 0.303557
0.366340 0.340287 0.084963
0.356946 0.350128 0.142320
0.452370 0.212982 0.430680
0.393273 0.308765 0.278052
-0.353393 0.353713 0.438158
-0.319006 0.385013 0.967649
-0.445953 0.226110 0.720167
0.494562 0.073540 0.260482
0.369086 0.337306 0.561372
-0.495637 0.065911 0.195360
0.242334 0.437349 0.202556
0.420501 0.270516 0.557185
0.011099 -0.499877 0.709937
0.269406 0.421213 0.587343
0.286229 0.409967 0.238291
0.150989 -0.476658 0.298928
-0.262713 0.425420 0.893386
-0.449707 -0.218550 0.157657
-0.493262 0.081810 0.299096
