x y z
0.180968 0.466102 0.175772
-0.497092 -0.053847 0.210252
0.362848 -0.344008 0.923416
0.191837 0.461734 0.410936
-0.067157 -0.495469 0.050753
-0.416108 0.277226 0.166637
0.448010 0.222008 0.562073
0.146954 0.477917 0.695622
0.485311 0.120304 0.741463
-0.337179 -0.369203 0.603709
-0.257913 -0.428347 0.306871
0.472276 -0.164180 0.850017
-0.455958 0.205189 0.479362
-0.046636 0.497820 0.929984
0.485181 -0.120828 0.704597
0.257865 -0.428376 0.148803
-0.365709 0.340964 0.365189
0.418881 -0.273018 0.096548
-0.476926 0.150139 0.617754
0.283928 -0.411564 0.670599
0.485894 -0.117927 0.366161
0.359736 -0.347261 0.733528
0.450853 0.216174 0.074746
0.372847 0.333145 0.688356
0.251342 0.432235 0.154037
-0.264406 0.424370 0.296236
0.082225 0.493193 0.224537
0.320587 0.383697 0.280729
-0.467717 0.176751 0.850479
0.497739 -0.047492 0.426580
-0.455311 -0.206621 0.853979
0.455497 -0.206210 0.838525
-0.457565 -0.201579 0.284159
-0.445354 -0.227288 0.457084
-0.474198 -0.158544 0.879385
0.472301 -0.164109 0.497696
0.160685 -0.473477 0.637121
0.490977 -0.094560 0.047176
-0.262138 -0.425774 0.974878
-0.062119 0.496126 0.854490
-0.322118 -0.382413 0.921640
-0.035359 0.498748 0.553920
0.211551 0.453041 0.200895
0.493817 -0.078389 0.071613
0.348063 0.358959 0.223995
-0.341456 -0.365250 0.690558
0.395562 -0.305828 0.551571
0.496195 -0.061564 0.293022
0.402203 -0.297040 0.293399
0.489067 -0.103988 0.428825
-0.496873 0.055831 0.872648
0.284357 -0.411267 0.257952
0.070439 -0.495013 0.169430
-0.312618 0.390218 0.685098
0.313196 0.389754 0.211445
0.380697 -0.324145 0.046185
0.393189 0.308873 0.448565
-0.412517 0.282542 0.091786
0.107868 -0.488226 0.101226
-0.484704 0.122726 0.991808
0.329811 -0.375799 0.316361
-0.460885 0.193869 0.004597
0.473963 -0.159244 0.584885
0.499194 0.028382 0.950963
0.007878 0.499938 0.236759
-0.468314 0.175163 0.526453
0.363821 0.342979 0.994600
-0.296785 -0.402391 0.440289
0.260267 -0.426920 0.234165
-0.358443 0.348595 0.150115
-0.405032 0.293171 0.593377
-0.478633 0.144605 0.830649
0.324406 0.380474 0.243670
-0.454295 -0.208844 0.275988
-0.444922 -0.228133 0.914597
-0.355522 0.351574 0.225533
0.315380 0.387989 0.197394
-0.125395 0.484021 0.823339
-0.075323 0.494294 0.261780
0.419010 0.272820 0.823589
0.197432 -0.459370 0.966558
0.338365 -0.368116 0.217256
-0.423532 0.265745 0.304231
0.084837 0.492750 0.459089
-0.429346 -0.256246 0.105433
-0.359915 0.347076 0.829239
-0.446203 0.225616 0.107375
-0.484193 -0.124727 0.660192
-0.284627 -0.411081 0.400959
-0.304211 -0.396807 0.404655
-0.146904 0.477932 0.140739
0.470851 -0.168223 0.209841
-0.497751 -0.047372 0.516279
0.002611 -0.499993 0.369604
-0.141454 0.479574 0.750003
-0.206069 -0.455561 0.003466
-0.311286 0.391281 0.720703
0.244073 0.436381 0.096749
-0.333520 -0.372511 0.652622
-0.128713 -0.483149 0.201998
-0.499777 0.014936 0.088287
0.077661 -0.493932 0.666208
-0.125945 -0.483878 0.891295
0.459515 -0.197095 0.738050
0.499991 -0.003073 0.489756
0.150561 -0.476793 0.199065
-0.443863 -0.230186 0.798592
0.486829 0.114009 0.150325
-0.149974 -0.476978 0.799470
-0.461613 0.192129 0.087248
0.440433 -0.236683 0.348259
-0.476405 -0.151785 0.796999
-0.405102 -0.293074 0.387003
-0.499481 -0.022786 0.840616
0.106529 -0.488520 0.828053
-0.057709 0.496658 0.336303
-0.151191 -0.476593 0.057630
0.485697 0.118737 0.456081
0.041663 0.498261 0.383204
-0.356130 -0.350958 0.100622
0.367113 0.339453 0.669732
0.499999 0.001154 0.313184
0.484167 -0.124828 0.813475
0.203445 -0.456738 0.591833
0.484870 0.122068 0.452121
0.482715 0.130333 0.768870
0.069715 0.495116 0.009893
0.478074 0.146441 0.647680
0.000243 -0.500000 0.785353
-0.290286 0.407105 0.477171
0.456950 -0.202970 0.683578
-0.496896 0.055627 0.350233
0.498989 -0.031785 0.168152
0.499995 -0.002254 0.984583
-0.104732 0.488908 0.706355
-0.490402 0.097496 0.526736
0.153155 0.475966 0.937680
-0.254079 0.430632 0.571802
0.394926 -0.306649 0.933285
0.418581 0.273477 0.118904
-0.301825 0.398625 0.048026
0.217759 -0.450090 0.516689
-0.498823 0.034282 0.338898
0.279245 -0.414756 0.559609
-0.479907 0.140319 0.402557
0.294212 -0.404276 0.780586
0.340917 -0.365753 0.928040
0.025811 -0.499333 0.368578
-0.129943 -0.482820 0.415916
-0.416829 0.276140 0.276232
-0.297824 -0.401623 0.878019
-0.123721 0.484451 0.350429
0.464798 0.184290 0.236973
0.178907 0.466897 0.561055
0.467679 0.176852 0.659855
-0.030700 -0.499057 0.466194
-0.334338 -0.371777 0.014874
-0.303149 0.397619 0.197714
0.321825 -0.382660 0.870375
0.270483 -0.420522 0.602945
-0.023658 0.499440 0.149772
0.497426 -0.050671 0.112779
-0.485372 -0.120057 0.347922
-0.367579 -0.338948 0.300384
0.058086 0.496615 0.505423
-0.428699 -0.257328 0.614224
-0.052327 -0.497254 0.331690
-0.016396 -0.499731 0.852404
-0.357081 -0.349991 0.884762
-0.176939 -0.467646 0.841856
-0.397609 0.303162 0.591387
0.037995 0.498554 0.352936
-0.429085 0.256682 0.991284
0.286921 -0.409483 0.159839
0.190714 0.462199 0.198224
-0.339198 0.367348 0.058625
-0.017834 0.499682 0.042085
-0.436482 -0.243893 0.413900
-0.212301 -0.452690 0.342273
-0.454179 -0.209098 0.479361
0.024405 0.499404 0.101917
0.480525 -0.138188 0.596663
-0.495289 -0.068478 0.825529
-0.161582 0.473171 0.677878
0.394682 -0.306962 0.317564
0.453204 0.211202 0.765733
-0.481501 0.134747 0.123684
-0.408700 -0.288035 0.327211
-0.031250 -0.499022 0.951687
0.371257 -0.334915 0.001548
-0.457414 -0.201921 0.973753
0.459779 0.196478 0.610701
0.449081 0.219832 0.104424
0.498112 0.043410 0.213100
0.347029 0.359960 0.952731
-0.241187 0.437983 0.290143
-0.268177 0.421997 0.107028
0.470640 0.168814 0.620211
-0.492606 0.085669 0.464847
0.090294 0.491779 0.270307
