x y z
0.031911 -0.498981 0.483252
0.156934 -0.474733 0.461286
0.086155 -0.492521 0.087230
-0.392737 0.309447 0.220440
0.245564 0.435544 0.565187
-0.413133 0.281640 0.059684
-0.478015 0.146636 0.335306
0.495911 0.063815 0.227241
0.121204 -0.485087 0.794495
-0.497453 -0.050399 0.633662
0.347451 0.359552 0.523625
-0.249758 -0.433152 0.455791
-0.394437 -0.307278 0.091371
0.408584 -0.288200 0.283192
-0.430032 -0.255093 0.931680
0.430848 0.253712 0.800590
-0.425672 -0.262305 0.104445
-0.303939 -0.397015 0.322918
0.033603 -0.498870 0.566626
-0.480328 0.138870 0.238468
-0.137019 -0.480860 0.481571
0.367213 -0.339345 0.197631
0.215692 -0.451084 0.939438
0.352988 -0.354118 0.634172
-0.491245 -0.093160 0.948734
0.401559 0.297910 0.177570
-0.309458 -0.392729 0.732816
-0.494319 -0.075155 0.096981
-0.135518 0.481285 0.771094
-0.112736 -0.487125 0.989596
0.414450 0.279698 0.090607
-0.178805 -0.466936 0.088951
0.002335 -0.499995 0.246576
0.387151 -0.316409 0.863723
0.460033 0.195881 0.196511
-0.067730 -0.495391 0.770850
0.036572 -0.498661 0.797969
-0.389283 0.313782 0.547161
-0.086535 -0.492455 0.246251
0.323494 -0.381250 0.386740
-0.019874 -0.499605 0.575771
0.490387 0.097575 0.612967
-0.475276 0.155284 0.567594
0.178697 0.466977 0.267451
0.170730 0.469948 0.784394
-0.294936 0.403749 0.705096
-0.174316 -0.468630 0.620132
0.209508 -0.453990 0.667891
0.028218 0.499203 0.890143
-0.246568 0.434976 0.082616
-0.034081 0.498837 0.877569
-0.466480 0.179991 0.762862
0.488333 0.107383 0.227739
0.400842 -0.298875 0.486870
-0.030547 0.499066 0.647778
-0.007510 0.499944 0.145586
-0.437905 -0.241328 0.121347
0.496631 -0.057944 0.331961
-0.004010 -0.499984 0.761560
-0.369235 0.337143 0.962046
0.166411 0.471495 0.066894
-0.106546 0.488516 0.605365
0.116980 0.486123 0.836864
0.298849 -0.400861 0.695824
0.240166 0.438543 0.868167
-0.457656 0.201373 0.357648
-0.492219 0.087869 0.931194
-0.183983 0.464920 0.485083
-0.279122 -0.414838 0.946985
0.319680 0.384454 0.393621
-0.452959 -0.211728 0.707991
-0.340940 0.365732 0.688146
-0.457372 -0.202018 0.593819
-0.478922 0.143644 0.942926
-0.498475 -0.039023 0.698849
-0.059974 0.496390 0.798964
0.293289 0.404947 0.390348
0.356562 0.350519 0.371779
0.460786 0.194104 0.545391
0.495919 0.063756 0.004962
-0.077338 0.493983 0.197017
-0.481544 -0.134595 0.511758
0.460254 0.195363 0.835601
0.046528 -0.497830 0.051016
-0.355159 -0.351940 0.094067
0.242342 -0.437345 0.924509
-0.175632 0.468138 0.790562
0.475422 0.154835 0.018706
0.230864 0.443511 0.752143
0.452562 -0.212574 0.944653
-0.008465 -0.499928 0.701233
-0.382703 -0.321774 0.088242
-0.419850 0.271525 0.671964
-0.494933 0.071000 0.601261
0.167783 -0.471008 0.742669
0.088784 -0.492054 0.923875
0.213150 -0.452291 0.171975
-0.499540 0.021450 0.716759
0.055567 0.496903 0.396840
0.111253 -0.487466 0.178617
-0.485044 0.121375 0.598730
0.116954 -0.486129 0.008656
0.021992 -0.499516 0.666437
-0.210865 0.453361 0.153362
0.356262 0.350824 0.352892
0.487598 -0.110673 0.025207
0.020676 0.499572 0.024476
0.440965 -0.235690 0.400217
0.304789 0.396363 0.358083
0.499288 -0.026675 0.492897
0.283506 -0.411855 0.896065
0.436377 0.244079 0.774336
0.104085 0.489046 0.938632
0.426035 -0.261713 0.037363
0.299103 0.400671 0.283570
0.344007 0.362849 0.435824
0.480108 0.139630 0.600617
0.181280 -0.465980 0.436760
-0.465823 -0.181684 0.535137
0.495388 0.067757 0.369242
0.070807 -0.494961 0.270443
-0.135445 0.481305 0.885321
0.498341 -0.040695 0.455526
-0.446358 0.225311 0.522003
0.492975 0.083522 0.541233
-0.358102 0.348946 0.241899
-0.110232 0.487697 0.462989
0.330876 -0.374861 0.643592
0.489203 -0.103347 0.465479
0.458184 -0.200169 0.276018
-0.220067 0.448966 0.157397
-0.484709 0.122707 0.195619
0.345880 0.361063 0.072354
0.179276 0.466755 0.112426
-0.414033 0.280316 0.244978
0.497042 0.054304 0.591190
-0.392494 -0.309756 0.902606
-0.482227 -0.132125 0.799353
-0.250127 0.432939 0.938913
-0.393539 0.308426 0.704506
-0.003306 -0.499989 0.494279
0.147386 0.477784 0.877719
0.484539 0.123378 0.093707
0.474158 -0.158663 0.017774
-0.497541 0.049523 0.365195
0.187932 -0.463337 0.837540
-0.141299 0.479619 0.797040
0.484623 0.123049 0.732031
-0.208377 -0.454510 0.239808
0.212040 0.452812 0.438859
-0.368201 -0.338272 0.032622
0.456138 0.204787 0.467600
0.301276 0.399040 0.594448
-0.005837 -0.499966 0.412419
0.377413 0.327962 0.423004
0.452117 -0.213520 0.417028
-0.333775 0.372283 0.507810
0.247986 -0.434169 0.929369
-0.496939 -0.055245 0.998817
-0.181601 0.465855 0.881906
0.354975 -0.352126 0.174126
0.326618 0.378577 0.288599
-0.485098 0.121159 0.396081
0.407822 -0.289278 0.624662
0.034290 -0.498823 0.929592
0.230911 0.443486 0.820854
-0.008603 -0.499926 0.787219
-0.474807 0.156712 0.482735
0.389515 -0.313493 0.915674
0.417666 -0.274873 0.435941
0.356413 0.350670 0.112015
-0.032329 0.498954 0.892649
0.053699 -0.497108 0.456378
-0.002848 -0.499992 0.432539
-0.296019 -0.402955 0.870575
-0.494278 -0.075426 0.895318
-0.131652 0.482357 0.408359
-0.310642 -0.391793 0.330863
-0.007703 0.499941 0.845209
0.450292 -0.217341 0.988977
0.315729 0.387705 0.323648
0.181346 -0.465955 0.557670
-0.490632 -0.096333 0.003138
0.415600 -0.277987 0.905660
0.381554 -0.323135 0.401056
0.068951 0.495223 0.978645
0.210798 0.453392 0.346256
0.239250 0.439044 0.440836
0.427762 -0.258882 0.819388
-0.099035 0.490094 0.947827
-0.229497 0.444220 0.851870
-0.484968 0.121682 0.830701
0.474278 -0.158304 0.105203
-0.204940 -0.456070 0.396258
0.499984 0.003962 0.614370
-0.486606 0.114956 0.656087
-0.485880 -0.117986 0.534385
-0.489220 0.103267 0.875790
-0.499447 -0.023504 0.810889
0.450741 0.216408 0.869449
