x y z
-0.484200 -0.147055 0.899963
0.286665 0.424763 0.550583
0.099544 -0.488827 0.539535
0.457075 -0.197048 0.153937
-0.163839 0.468830 0.651845
0.459241 -0.240225 0.436059
-0.015065 0.500247 0.186467
0.121749 -0.474361 -0.000355
0.446510 0.241978 -0.000644
-0.065236 -0.492484 0.451577
-0.023391 0.503582 0.239428
-0.467718 0.208415 0.248147
0.460079 -0.199820 0.495740
-0.488427 -0.100315 0.448135
0.500415 0.102179 0.781105
-0.205600 -0.456159 0.452576
-0.128816 0.482337 0.741205
0.183306 0.469289 0.277848
0.414325 -0.301757 0.100103
0.115062 0.481394 0.032675
-0.083426 -0.499121 0.526086
0.444899 0.224188 0.179539
0.055901 0.494633 0.480443
0.489910 0.048760 0.478995
0.495252 -0.064280 0.170833
-0.159826 0.480028 0.508576
0.283196 -0.395701 0.438647
-0.206961 -0.460490 0.970322
0.441738 0.240005 0.036208
-0.164085 0.477629 0.140079
-0.285896 -0.430216 0.020984
0.454837 0.225590 0.841813
-0.117691 -0.466900 0.499688
0.193751 0.454523 0.419636
-0.425155 -0.231293 0.817633
-0.492290 0.131696 0.523468
-0.222432 -0.442260 0.250388
0.373867 0.346518 0.093516
0.383324 -0.331988 0.863789
0.343270 0.339866 0.269559
-0.082436 -0.478421 0.504497
0.067963 0.496021 0.676859
-0.497080 -0.098750 0.528274
0.463747 -0.167169 0.572761
0.163508 -0.476989 0.132281
-0.455561 0.229446 0.421098
-0.244082 0.423243 0.622434
0.270798 0.425710 0.833670
0.383508 -0.298557 0.275464
0.374441 0.336372 0.718125
0.120567 -0.503186 0.760951
0.469691 -0.015633 0.926279
-0.265553 -0.408464 0.447302
0.145423 0.484377 0.354941
-0.513027 0.048515 0.069560
-0.407336 -0.282983 0.110354
-0.487181 0.164913 0.529639
-0.464812 -0.203332 0.431620
-0.214616 0.470549 0.791578
-0.406610 0.267520 0.236993
0.099631 0.487060 0.164972
0.355452 -0.352264 0.275365
-0.004747 0.519083 0.149352
-0.507012 -0.033169 0.968947
-0.445301 0.215950 0.981146
0.425771 0.235264 0.774200
-0.221724 -0.455972 0.797464
-0.503799 -0.013777 0.038763
-0.500067 -0.113347 0.064489
-0.136924 0.474474 0.925784
0.482012 0.019480 0.788106
0.238378 -0.447901 0.241035
-0.401845 0.295500 0.560643
-0.288342 0.409524 0.209392
-0.430592 -0.285357 0.020819
0.489924 0.035908 0.168728
-0.493899 -0.122832 1.008000
-0.016554 0.508836 0.658930
0.496612 0.081284 0.077020
0.501408 -0.087214 0.787469
0.496429 -0.093232 0.085448
-0.004372 0.494077 0.581901
0.346722 0.366358 0.542732
-0.155960 -0.461677 0.584471
-0.283075 0.392654 0.221385
-0.264118 0.439094 0.873480
0.446453 0.225259 0.127130
-0.254303 0.428579 0.483755
-0.075783 -0.482738 0.029927
-0.188905 -0.453844 0.258518
0.203703 -0.464431 0.932642
0.478862 -0.126868 0.125787
-0.361615 -0.338687 0.245257
-0.504934 -0.035293 0.792588
-0.440182 -0.236907 0.599281
-0.047869 -0.499568 0.765550
0.325487 -0.366894 0.703174
0.503297 0.016539 0.641698
-0.419522 0.261547 0.986304
0.483379 0.059005 0.551384
0.152080 0.482412 0.166120
-0.202598 -0.449766 0.649963
0.402509 -0.302362 0.335457
-0.121272 0.504058 0.904299
-0.148360 0.477387 0.498111
-0.377590 -0.340325 0.381507
0.387104 -0.328849 0.271721
-0.480140 -0.153325 0.193728
0.363883 -0.356875 0.393211
0.334792 0.370441 0.482850
0.135312 -0.473034 0.920649
0.054401 -0.492125 0.088963
-0.020816 0.517139 0.153716
0.503649 -0.046963 0.034634
-0.477492 0.127967 0.812063
0.482208 0.095345 0.795862
0.000720 -0.487755 0.881658
0.485058 0.036256 0.919969
0.408623 -0.238078 0.009791
-0.476783 -0.116171 1.012797
0.003143 -0.488487 0.155990
-0.310033 -0.380226 0.081399
0.346808 -0.358930 0.347321
0.484113 0.091119 0.903784
-0.288667 -0.402995 0.617490
0.323651 0.380578 0.345971
-0.200564 -0.449593 0.136933
-0.323804 -0.376779 0.036059
-0.219654 -0.447484 0.143032
-0.442944 0.272538 0.785450
0.015672 0.491943 0.003327
0.140657 -0.494615 0.389919
-0.469211 0.171128 0.652027
-0.396878 0.276801 0.321727
0.480202 -0.138702 0.155144
0.207087 0.463404 0.344618
0.433573 0.221609 0.753496
-0.476628 0.104545 0.698074
0.471973 0.148129 0.615767
0.474231 -0.142928 0.249161
0.474231 -0.114103 0.107132
0.505471 -0.088289 0.033814
-0.500058 -0.006235 0.831637
0.061230 0.508255 0.068682
0.479146 0.165324 0.870371
-0.477002 0.107163 0.031053
-0.348964 -0.341156 0.283385
-0.252412 0.421532 0.153965
-0.508904 0.075774 0.302693
-0.200946 -0.443465 0.882313
-0.428828 -0.239916 0.255783
-0.481660 -0.067080 0.461879
-0.231947 -0.431786 0.314899
0.076241 -0.503435 0.886454
0.188177 0.454988 0.621532
0.042761 -0.515776 0.261600
-0.106802 0.461734 0.666501
-0.514685 0.057902 0.939916
0.391552 -0.312006 0.851180
0.485122 -0.072028 0.550792
0.227672 0.447172 0.033823
-0.261961 -0.404939 0.649949
-0.201945 -0.452653 0.390220
-0.225810 -0.451107 0.803379
-0.420807 0.220047 0.051710
0.461523 0.165070 0.938967
0.447817 0.198755 0.460935
-0.473309 -0.174624 0.422753
0.042471 -0.500874 0.728771
-0.403929 0.277650 0.632605
0.467842 -0.112949 0.065312
0.197639 0.457028 0.941193
0.467519 0.206951 0.892522
0.236079 0.434880 0.952801
-0.490134 0.075610 0.797381
-0.424664 -0.273549 0.029045
0.201400 0.450753 0.614384
-0.482279 -0.148018 0.034578
-0.465228 0.164837 0.806157
-0.456556 -0.231693 0.114032
0.352533 0.349713 0.416045
0.321268 0.394147 0.164002
0.452840 0.224974 0.777922
0.197594 -0.452227 0.050674
0.391315 -0.283982 0.729584
0.296857 -0.370915 0.228973
0.444119 -0.259316 0.011873
0.445459 0.250639 0.069759
-0.465798 -0.180489 0.506463
-0.105977 0.496958 0.446963
0.310156 0.403932 0.909067
-0.385732 0.323407 0.691439
-0.207406 -0.469429 0.673570
0.493151 -0.079675 0.375195
0.272752 -0.404142 0.874228
0.447495 -0.229244 0.697390
0.178217 -0.469900 0.199440
0.056157 -0.492555 0.814434
-0.489463 0.054715 0.056948
0.007772 -0.511775 0.237054
