x y z
0.511148 -0.023511 0.223455
0.496762 0.055392 0.697712
-0.052173 -0.498928 0.234621
-0.033502 0.482081 0.337978
0.284883 -0.399184 0.802293
-0.347365 0.358795 0.387351
0.144818 0.470086 0.183977
-0.103892 -0.482666 0.363996
0.383929 -0.292900 0.265089
-0.183151 -0.457491 0.832084
-0.369718 0.340693 0.307556
0.064817 -0.496738 0.605477
0.447552 0.228964 0.866969
0.401861 0.288427 0.481062
0.229050 0.432021 0.249460
0.400683 -0.304284 0.752877
-0.098472 0.495749 0.092994
0.455133 0.209915 0.198075
0.432538 -0.243787 0.426227
0.133970 0.483283 0.320280
-0.102130 0.472963 0.270990
-0.434938 0.245130 0.674954
-0.340080 0.349101 0.756710
0.065016 0.490334 0.338747
-0.468153 0.074863 0.490602
-0.321504 -0.362155 0.100910
0.493294 -0.063159 0.619603
-0.006690 -0.504257 0.460083
0.232361 0.432304 0.601281
-0.038141 -0.473862 0.642360
-0.170977 -0.462688 0.094130
0.422749 -0.277924 0.874404
-0.279925 -0.400046 0.247268
-0.463555 0.214135 0.434266
0.345109 -0.354647 0.980864
0.343941 -0.365587 0.990220
0.480930 0.130298 0.950645
0.376650 -0.307825 0.946760
-0.515126 -0.003539 0.811939
0.426054 0.268225 0.514156
0.089927 -0.484266 0.836316
0.193137 -0.458509 0.536934
-0.233414 0.434815 0.886356
0.417691 0.261781 0.449785
0.491214 -0.134851 0.250072
-0.289152 0.419345 0.224899
-0.435761 0.285240 0.898325
-0.188688 0.458885 0.737334
-0.396207 -0.307232 0.061557
-0.203335 -0.455306 0.022622
0.313448 0.377885 0.544254
-0.288368 -0.394441 0.862395
-0.493507 0.078956 0.460500
-0.417534 -0.286173 0.187196
-0.318314 -0.357322 0.614848
-0.448307 -0.242144 0.073996
0.477201 0.129516 0.495281
-0.488285 -0.022525 0.728825
-0.382586 0.318666 0.778191
-0.078399 0.489788 0.571566
-0.416611 -0.259765 0.734595
-0.269502 0.421827 0.652294
0.048709 -0.485666 0.767458
0.095174 0.487879 0.609975
-0.120078 0.486924 0.408072
0.407842 0.291661 0.197378
-0.414947 -0.267632 0.832018
-0.359662 -0.344274 0.270826
-0.298588 -0.420046 0.878610
-0.401475 -0.321866 0.354154
0.180393 -0.458572 0.808659
0.283177 -0.427795 0.659233
0.000979 -0.494637 0.208235
-0.417258 0.267722 0.758389
-0.426384 0.278110 0.546470
-0.507857 -0.014775 0.818419
-0.230770 -0.428436 0.577129
0.438070 0.240873 0.789579
-0.433823 -0.247361 0.094175
0.218278 -0.462011 0.070268
-0.479509 -0.137295 0.260582
-0.375002 -0.333796 0.970048
0.452153 0.204640 0.644666
0.435372 0.231116 0.376664
0.363152 -0.330958 0.734677
0.312242 -0.379418 0.036429
0.490781 0.067373 0.011399
0.164856 0.460887 0.526702
-0.109206 -0.498529 0.944603
0.297609 0.408658 0.063250
-0.179232 0.480546 0.153927
0.287851 -0.401754 0.513041
0.239312 -0.428489 0.243309
-0.391542 -0.312459 0.847656
0.121981 0.472345 0.551766
0.437980 -0.255807 0.034057
-0.404945 -0.313614 0.851680
0.162713 0.479980 0.171779
0.189327 0.468075 0.788663
-0.490583 0.053117 0.512820
0.508142 0.012872 0.418137
0.071550 -0.496646 0.343741
-0.407432 -0.274283 0.462576
-0.479966 -0.157852 0.350673
0.455655 -0.222515 0.794630
-0.492740 -0.113117 0.437856
0.239416 0.434642 0.976873
-0.360133 -0.344631 0.267426
-0.232793 0.434524 0.246533
-0.148305 0.464562 0.298111
-0.393062 0.298537 0.732707
-0.300360 -0.402039 0.924454
0.390571 -0.307037 0.775510
0.394490 0.285747 0.778548
0.482128 0.064441 0.798461
-0.453212 -0.221200 0.716087
-0.423458 0.271011 0.805451
-0.271472 -0.400479 0.981640
-0.423311 -0.292780 0.051720
-0.283063 0.412102 0.096074
-0.472934 0.143457 0.602474
-0.146526 -0.478361 0.285721
-0.418537 -0.253414 0.789508
-0.323876 0.387633 -0.000288
0.487245 -0.152067 0.049861
0.402197 0.309995 0.290854
0.454060 -0.229591 0.940722
-0.186958 -0.461104 0.249275
-0.479654 -0.177848 0.466064
-0.323789 -0.380000 0.482280
-0.271080 0.431860 0.940670
0.112243 -0.474566 0.478781
-0.145010 0.475236 0.505123
-0.270856 0.423897 0.592224
-0.261212 -0.427661 0.245913
-0.104471 0.491439 0.432488
-0.040792 0.510854 0.579258
-0.453153 0.203209 0.940891
0.480786 0.090242 0.032287
-0.110981 0.485197 0.401927
0.251492 0.440142 0.171320
-0.268018 0.424990 0.166851
-0.493615 0.133499 -0.002875
-0.298674 0.411256 0.539461
0.394987 -0.339373 -0.008908
0.486735 -0.019403 0.538322
0.451739 -0.238052 0.494885
0.330593 -0.377691 0.716491
-0.495339 0.029920 0.012133
0.507581 0.053917 0.686006
0.518918 0.033942 0.688754
0.197877 -0.461666 0.383485
-0.237561 -0.439684 0.522254
0.433487 -0.214322 0.896577
-0.413343 0.295349 0.074499
-0.412316 0.293735 0.738586
0.337832 -0.385780 0.148228
-0.419812 -0.271856 0.250147
0.411526 -0.289788 0.261275
-0.249491 0.410828 0.752242
-0.209426 -0.446884 0.017547
0.482643 -0.041856 0.059788
-0.411044 0.285062 0.123464
0.261944 0.450861 0.077116
-0.281596 -0.442764 0.655023
0.407142 -0.295769 0.944745
-0.099819 -0.496291 0.020969
-0.418563 -0.287031 0.051455
-0.486456 -0.107329 0.293839
-0.011050 -0.511602 0.834867
0.186897 0.466122 0.533781
-0.421636 0.284829 0.471271
-0.454621 -0.241087 0.265464
-0.023873 0.507010 0.493299
-0.484420 0.122575 0.429673
-0.103078 0.489810 0.128192
-0.349294 0.318970 0.734429
0.135039 -0.476297 0.901030
-0.025948 0.494338 0.159861
0.013403 -0.483784 0.642706
-0.493283 0.086872 0.766619
0.102849 -0.488611 0.441689
-0.220984 -0.457196 0.862550
0.502314 -0.111781 0.761763
0.482172 0.006418 0.229754
0.493192 -0.049724 0.931275
0.149848 -0.484540 0.571085
-0.493331 0.028497 0.252127
0.323026 -0.401240 0.225715
0.102152 -0.512547 0.705415
0.496643 -0.041672 0.250510
-0.216474 0.454419 0.704212
0.378985 -0.328796 0.360828
0.347722 -0.368916 0.452198
-0.241478 -0.464202 0.668270
-0.434162 0.220621 0.720540
-0.418124 0.280647 0.915248
-0.203648 -0.442680 0.775116
0.486033 0.099403 0.984322
0.270572 0.415947 0.676173
