x y z
-0.457289 0.202204 0.730217
-0.424547 -0.264120 0.963113
-0.301359 -0.398977 0.973389
-0.336036 -0.370243 0.221093
0.492713 -0.085051 0.135341
-0.415261 0.278493 0.685026
0.428557 -0.257563 0.537625
-0.411499 -0.284022 0.555637
-0.379396 -0.325667 0.605404
-0.497592 -0.049010 0.408859
-0.464416 -0.185250 0.686730
0.418767 -0.273193 0.899150
-0.399182 -0.301088 0.329480
0.469969 0.170674 0.340466
-0.220342 -0.448831 0.887804
0.499382 0.024858 0.853050
0.373176 -0.332776 0.384881
0.486585 0.115046 0.929605
-0.087348 -0.492311 0.664312
-0.354619 -0.352485 0.682150
-0.478031 -0.146582 0.677758
-0.349803 0.357264 0.024922
-0.496030 -0.062881 0.631303
0.332599 -0.373334 0.092704
0.438649 0.239972 0.945685
-0.015366 -0.499764 0.734682
0.389534 -0.313470 0.276684
0.323603 -0.381158 0.746378
0.376267 -0.329276 0.207923
-0.498968 0.032105 0.608597
0.351818 0.355281 0.575735
0.381873 -0.322758 0.245863
0.056586 0.496788 0.299117
0.106938 0.488430 0.121121
-0.293365 -0.404891 0.810086
-0.498144 -0.043038 0.979581
0.177058 -0.467601 0.629060
-0.251356 -0.432227 0.269581
-0.156232 -0.474965 0.498932
-0.467125 -0.178309 0.029538
0.487415 0.111475 0.965040
0.078398 0.493815 0.568082
0.066331 0.495581 0.713684
0.380930 -0.323871 0.308159
-0.413664 -0.280859 0.452641
0.498832 0.034156 0.129533
-0.478924 0.143636 0.525635
-0.292510 -0.405510 0.067266
0.341307 0.365389 0.443417
-0.058731 0.496539 0.779848
-0.465553 -0.182376 0.284151
-0.195213 0.460317 0.235540
-0.340321 -0.366309 0.970670
0.295031 -0.403679 0.225680
-0.494588 -0.073367 0.247169
-0.162623 0.472815 0.759352
-0.036126 0.498693 0.255207
-0.352667 0.354438 0.187841
0.482008 0.132922 0.361313
0.465473 0.182579 0.269091
0.258460 -0.428017 0.869472
-0.409595 -0.286761 0.049519
-0.016178 0.499738 0.025851
-0.499048 -0.030843 0.348619
0.343450 0.363376 0.888390
-0.442323 -0.233132 0.350993
0.488640 0.105976 0.981071
-0.458220 0.200087 0.717484
-0.495004 -0.070503 0.786835
-0.470977 0.167870 0.676948
-0.491782 0.090278 0.239800
0.152347 -0.476225 0.058836
0.306422 0.395102 0.473919
0.219921 0.449037 0.647987
0.480388 0.138662 0.887623
0.499527 -0.021745 0.927606
-0.396892 -0.304100 0.591695
-0.316134 -0.387375 0.898009
-0.165441 -0.471836 0.991935
0.476825 0.150458 0.340195
-0.136779 0.480928 0.821299
-0.054307 -0.497042 0.540067
-0.415331 -0.278388 0.681351
0.190724 -0.462195 0.805047
-0.303398 0.397429 0.555625
0.236597 -0.440479 0.668517
0.132249 0.482193 0.540056
-0.181284 0.465979 0.961160
0.050274 -0.497466 0.529922
0.156663 -0.474823 0.977245
0.329006 0.376504 0.859887
0.453580 -0.210392 0.552196
0.485617 0.119062 0.894655
-0.401857 -0.297507 0.104930
0.472987 -0.162121 0.434944
0.466716 -0.179376 0.873873
0.274323 0.418028 0.826121
0.495013 0.070442 0.931668
0.451301 0.215239 0.934834
0.444403 0.229142 0.854263
0.062465 -0.496083 0.634051
-0.054777 -0.496990 0.645474
-0.363239 -0.343595 0.911020
-0.494616 -0.073179 0.619171
-0.111401 0.487432 0.545434
0.101110 0.489670 0.412926
-0.463370 0.187852 0.114714
-0.325056 -0.379919 0.275812
0.078976 -0.493723 0.891359
-0.468100 0.175733 0.163363
0.032938 0.498914 0.682211
0.121036 -0.485129 0.379066
-0.490228 -0.098369 0.121220
0.485192 -0.120783 0.501739
-0.154016 -0.475688 0.805953
0.498558 -0.037946 0.617152
0.382874 -0.321570 0.699887
-0.250337 -0.432818 0.016522
0.476866 -0.150329 0.994566
-0.290087 0.407246 0.600781
0.436709 -0.243486 0.977487
-0.350023 -0.357049 0.258151
-0.156881 -0.474751 0.573663
0.086507 0.492460 0.195205
-0.447241 -0.223552 0.593454
-0.438858 0.239590 0.196300
0.082555 -0.493138 0.440745
0.090910 -0.491666 0.664295
0.493184 -0.082275 0.381721
-0.340226 0.366396 0.233468
0.198487 -0.458915 0.404628
-0.498462 0.039182 0.599129
0.192843 0.461315 0.598699
-0.495835 0.064403 0.136165
0.380568 -0.324296 0.615673
0.149484 0.477131 0.671744
0.164758 -0.472075 0.354301
0.473644 0.160192 0.493452
-0.036347 0.498677 0.277177
0.495267 -0.068631 0.876070
-0.228397 0.444786 0.319944
-0.372862 -0.333128 0.736519
-0.277630 -0.415838 0.106442
-0.292864 -0.405254 0.367574
0.038724 -0.498498 0.133684
-0.087939 -0.492206 0.858647
0.310928 -0.391566 0.555529
0.178535 0.467039 0.837882
0.479006 -0.143364 0.656941
0.339580 -0.366995 0.839998
0.245986 0.435306 0.588239
0.498703 0.035985 0.528739
-0.432089 -0.251592 0.383286
-0.490348 -0.097767 0.474685
-0.368202 0.338271 0.324898
0.279777 -0.414397 0.246016
0.496897 0.055614 0.015240
0.386922 -0.316688 0.162231
-0.229691 -0.444119 0.525858
-0.463943 -0.186433 0.505800
0.140408 0.479881 0.311671
0.437583 -0.241912 0.858114
0.306370 0.395142 0.978762
0.255029 0.430070 0.869116
-0.148278 0.477508 0.103859
0.203233 -0.456833 0.089895
0.310578 -0.391844 0.707775
0.335595 0.370643 0.737281
-0.494334 -0.075057 0.145041
-0.287770 0.408887 0.007579
0.403205 0.295678 0.787893
-0.425103 -0.263225 0.190457
-0.372261 0.333799 0.235168
-0.475073 0.155902 0.004087
-0.262077 0.425812 0.872855
0.019889 0.499604 0.807821
0.133634 0.481811 0.032138
-0.229917 -0.444003 0.169928
0.286213 -0.409978 0.388300
0.368292 -0.338173 0.424554
-0.492681 0.085236 0.860405
0.065912 -0.495637 0.429378
0.498283 -0.041400 0.066468
-0.006831 -0.499953 0.252405
-0.440828 -0.235946 0.762545
-0.496077 -0.062512 0.439647
-0.187693 0.463434 0.053442
-0.371369 0.334791 0.380373
-0.265587 0.423631 0.768473
-0.373734 -0.332149 0.971477
0.240879 0.438152 0.455682
0.233019 0.442382 0.082559
0.455047 -0.207200 0.928489
0.107145 0.488385 0.497156
0.030438 0.499073 0.483898
0.107745 -0.488253 0.470100
0.291696 0.406095 0.353547
0.365692 -0.340983 0.990982
-0.430198 0.254813 0.037788
0.499203 0.028221 0.273901
