x y z
0.426016 0.219342 0.270595
-0.501824 0.067860 0.525738
0.492046 0.111046 0.337317
0.138998 -0.490826 0.493342
0.291266 -0.396420 0.809072
0.332431 -0.363655 0.272940
0.487984 -0.041268 0.890704
0.466249 0.233622 0.322768
-0.476816 0.165172 0.269296
-0.316831 -0.367161 0.871173
0.431071 0.260988 0.362345
-0.402168 -0.323985 0.922550
-0.280192 0.409903 0.125208
-0.387734 0.318524 0.143776
0.343183 0.340231 0.863528
0.498322 -0.036450 0.826118
0.511995 0.137850 0.953178
0.018593 -0.513101 0.468648
-0.330433 0.386711 0.398559
0.168533 0.457302 0.902418
-0.400832 0.291936 0.509382
-0.127624 -0.477765 0.532964
-0.292367 0.428277 0.877806
-0.380549 -0.313072 0.226267
0.463204 0.113537 0.533097
-0.451349 -0.202675 0.642991
0.435862 -0.222227 0.148411
-0.265740 -0.442547 0.459867
-0.013803 0.480226 0.955002
-0.453215 -0.250267 0.420495
-0.439839 -0.215690 0.698099
0.319567 0.400650 0.510612
0.387240 0.313682 0.674856
-0.389066 0.332229 1.000552
-0.501040 0.067937 0.519571
-0.307472 -0.409251 0.428527
-0.268629 0.425432 0.458654
-0.422756 0.255049 0.141316
0.157317 -0.474570 0.641273
-0.139635 -0.473155 0.584192
0.004705 -0.503417 0.621274
0.028958 -0.503112 0.924012
0.484613 -0.147207 0.854684
-0.217904 0.443356 0.064715
-0.497216 0.029540 0.834493
0.219355 -0.463899 0.229802
-0.029379 -0.489659 0.596649
-0.500230 0.034779 0.640669
-0.468112 -0.205652 0.147180
0.464579 -0.088890 0.229569
0.172448 0.485453 0.061649
-0.137575 -0.485515 0.031338
0.499591 -0.075393 0.005574
0.193995 0.447719 0.137816
-0.423381 0.267371 0.611273
-0.364388 0.335222 0.343980
-0.351847 -0.338674 0.311590
0.466069 -0.171916 0.957736
0.150589 0.456209 0.682466
0.272702 -0.421665 0.448472
-0.210444 0.455721 0.059092
-0.209978 0.464412 0.143741
-0.113122 -0.490255 0.623632
-0.145792 0.488551 0.704202
-0.180289 0.457260 0.257114
-0.261807 -0.414231 0.362312
0.480389 0.140302 0.860132
-0.031750 0.513433 0.449265
-0.336497 0.364042 0.207143
0.499339 -0.079732 0.013483
0.506686 0.026024 0.693029
-0.162413 -0.481300 0.112648
-0.014738 -0.510260 0.628574
0.265353 0.437032 0.291361
-0.067935 -0.489889 0.845677
0.466513 -0.176968 0.402090
0.494546 -0.012905 0.866809
-0.312464 0.380737 0.634429
0.493618 -0.069312 0.312450
-0.006128 0.492786 0.500998
0.229230 -0.441738 0.815763
0.051988 -0.499782 0.911643
0.263970 -0.447277 0.211021
0.391300 -0.323061 0.605050
0.475428 0.212145 0.013437
0.452291 -0.208222 0.563889
0.158698 0.479256 0.060415
0.021392 -0.511299 0.392629
-0.384100 -0.338147 0.952133
-0.061471 -0.485455 0.153025
0.453219 -0.222439 0.722935
-0.484639 -0.060854 0.543410
-0.288215 -0.407042 0.692369
-0.193732 0.464614 0.130776
-0.374395 -0.355949 0.099425
-0.489616 0.140532 0.937702
-0.389506 -0.321518 0.690874
0.490226 0.014226 0.987470
0.447477 -0.204997 0.370873
-0.396372 -0.319871 0.589594
-0.039429 -0.478064 0.471121
0.487343 0.096060 0.583358
-0.447247 0.190935 0.330955
0.369163 0.334203 0.222488
-0.092110 0.497514 0.719459
0.417755 -0.281253 0.865925
-0.495014 -0.150512 0.406899
-0.350239 -0.367885 0.900639
-0.226119 0.431724 0.903662
0.427908 0.204112 0.941853
-0.012136 -0.492941 0.869664
-0.497566 -0.048695 0.477475
0.360244 0.372798 0.539497
0.264950 -0.439800 0.914575
-0.474524 0.124832 0.035553
0.113239 0.484698 0.586499
-0.136483 -0.496523 0.445940
0.352927 -0.351024 0.130155
0.203239 0.467679 0.265805
0.391505 0.321371 0.738326
0.002564 -0.499439 0.870814
0.341789 -0.336540 0.221384
0.379287 0.326921 0.939509
-0.231874 0.437288 0.780751
0.474256 0.162558 0.414274
-0.496010 0.007498 1.008646
0.386420 0.293486 0.948623
-0.245662 0.449335 0.594337
0.097803 -0.490408 0.172541
0.270848 -0.414454 0.121054
0.403343 0.260540 0.874729
-0.494816 0.071642 0.213335
0.296451 -0.411203 0.354898
0.199654 0.456599 0.931182
0.341505 0.360055 0.787047
0.340071 0.367190 0.248037
-0.321958 -0.365706 0.013808
0.299749 -0.398660 0.032017
0.497103 0.082929 0.198785
-0.151143 0.471343 0.398698
-0.464465 0.156250 0.946153
0.429297 0.254772 0.065421
0.492099 -0.071280 0.173324
-0.518961 -0.014910 0.610826
-0.048148 -0.502453 0.711098
-0.184531 -0.478652 0.899549
-0.443960 0.214813 0.207413
-0.491554 0.092402 0.452790
0.198370 -0.467768 0.646509
0.478788 -0.169059 0.817481
-0.434217 0.249876 0.913762
-0.494556 0.102208 0.731758
0.014896 0.484145 0.734664
-0.480398 0.146867 0.114726
-0.090588 -0.490779 0.185227
-0.366367 0.340294 0.485933
0.227969 -0.455515 0.394182
-0.499371 0.057541 0.148790
0.496440 0.059679 0.422118
0.367691 0.361154 0.053552
0.087593 -0.489015 0.630482
-0.347565 -0.381269 0.757739
0.489830 0.117039 -0.002289
0.122163 -0.478927 0.712426
0.270713 0.393709 0.578424
-0.418341 -0.271722 0.479460
0.487605 -0.057127 0.710981
0.465510 -0.133162 0.527948
-0.418760 0.261380 0.898344
-0.135405 -0.493055 0.565040
0.413800 -0.256779 0.799446
-0.472484 -0.080134 0.613230
-0.122870 -0.483985 0.759756
-0.276571 0.418423 0.678463
-0.012044 -0.518843 0.786126
-0.260461 0.448348 0.196138
-0.484118 0.145688 0.475985
0.383495 0.312733 0.305282
0.096342 -0.497531 0.461667
0.131579 0.479938 0.399132
-0.478196 0.073273 0.017671
0.213517 -0.459376 0.619022
0.231831 -0.443458 0.535615
-0.266867 0.424810 0.075849
0.342904 -0.382412 0.670145
-0.258084 0.440446 0.784727
-0.325955 0.376532 0.842343
-0.491608 0.137123 0.028098
0.178435 0.463526 0.720606
-0.457554 0.191075 0.791295
0.112130 0.495665 0.441867
-0.316863 -0.382774 0.123771
0.469395 0.081277 0.911414
-0.426686 -0.279486 0.794875
0.380420 0.340113 0.288378
-0.059312 0.483585 0.631947
-0.266953 -0.430121 0.284065
-0.124637 -0.490368 0.053597
-0.133721 -0.503358 0.509294
-0.430769 -0.227687 0.391939
