x y z
-0.287983 -0.415112 0.743258
0.395220 0.293547 0.493362
0.219190 -0.457563 0.632871
-0.167924 -0.496765 0.256173
-0.391316 -0.278715 0.199249
0.496839 0.004847 0.432336
-0.254317 -0.440533 0.447706
-0.457012 -0.227994 0.205744
-0.492504 -0.023294 0.868328
0.343570 -0.386615 0.978879
-0.462004 0.199141 0.657079
0.125842 -0.497283 0.079332
-0.356699 -0.386390 0.115134
-0.175557 0.482078 0.110305
0.108234 -0.494494 0.122979
-0.491413 0.032496 0.977534
0.404091 -0.294781 0.861167
0.077747 0.491541 0.245101
0.431073 -0.250353 0.564105
-0.447836 -0.201053 0.692384
-0.300737 0.384702 0.011767
0.300969 -0.408544 0.018103
0.415301 0.280908 0.950216
-0.486536 -0.096368 0.548141
-0.003457 -0.492668 0.320421
0.381352 0.306498 0.574175
-0.473191 -0.191036 0.424659
-0.151651 -0.477671 0.971129
0.464906 0.172649 0.169363
0.503015 0.018412 0.401470
-0.460359 0.173255 0.025846
0.480694 0.142566 0.684459
-0.224550 -0.474048 0.041256
0.350903 -0.357790 0.540135
-0.016584 0.519939 0.807634
0.503794 -0.096458 0.473927
-0.325643 -0.371777 0.744542
-0.011678 -0.512968 0.872368
0.144818 -0.477113 0.303629
-0.292462 -0.410152 0.284599
-0.395794 -0.313869 0.884672
0.050013 0.480747 0.957114
-0.469067 -0.195590 0.504931
0.157210 0.478474 0.298525
-0.295804 0.407496 0.352307
0.107701 -0.481305 0.203514
0.457491 0.171876 0.284300
0.385416 0.300734 0.837947
0.401090 -0.302838 0.921811
0.200077 0.457723 0.297944
-0.382365 0.349520 0.639699
0.096676 -0.497621 0.499560
-0.432053 0.228224 0.585432
-0.335007 -0.367300 0.396571
-0.500561 -0.042225 0.743306
0.499529 -0.050537 0.653291
-0.501207 -0.002101 0.969354
-0.313133 -0.388179 0.232273
-0.308068 0.382935 0.652132
0.410905 -0.265341 0.975372
-0.469621 0.166222 0.320165
-0.435352 0.259082 0.629202
0.489725 -0.107036 0.957704
0.265316 -0.419654 0.200220
-0.395517 -0.277509 0.493565
-0.284054 0.422311 0.661172
0.452225 -0.197130 0.566647
-0.374021 -0.352187 0.018906
0.405482 -0.314181 0.737974
-0.491108 -0.132444 0.517618
0.129765 0.479338 0.421775
-0.427582 0.199676 0.131186
-0.408205 -0.299401 0.652943
-0.140584 -0.479172 0.328201
0.131905 -0.480756 0.049075
0.022338 -0.509952 0.786248
0.492690 -0.158985 0.566820
-0.465910 0.178308 0.322821
0.389236 0.328783 0.439829
-0.046345 -0.486633 0.733947
0.098273 0.483837 0.962858
0.338751 -0.367098 0.472800
0.221896 -0.467491 0.689580
-0.501378 0.033140 0.555886
0.495687 -0.131713 0.046780
-0.483764 -0.112775 0.172771
-0.184882 -0.460371 0.415970
0.380031 0.335813 0.131294
0.443218 -0.245780 0.800302
0.433424 -0.244218 0.544443
-0.149893 -0.460464 0.784520
0.096669 0.494665 0.469198
-0.289983 -0.413647 0.996634
-0.331190 -0.357846 0.085088
-0.052288 0.483052 0.487301
-0.057097 0.501651 0.781683
0.061862 0.508321 0.004231
-0.491895 -0.012573 0.015085
-0.294746 0.401315 0.910043
-0.464844 -0.212218 0.960402
0.503994 0.047009 0.984979
0.509127 -0.052762 0.150066
0.016092 -0.484365 0.415881
0.134250 -0.472798 0.555761
-0.227297 -0.463810 0.394764
0.348145 0.393819 0.575673
0.388531 0.305982 0.349034
-0.392102 -0.334370 0.340842
-0.093456 0.498768 0.225303
0.483572 -0.097313 0.603010
0.151037 0.466877 0.243188
0.433192 -0.242625 0.600944
-0.232869 0.442418 0.025303
-0.493376 -0.107943 0.399514
-0.253966 -0.419760 0.589903
-0.107401 -0.475781 0.374584
0.230162 -0.454285 0.774758
-0.283594 -0.400661 0.804713
-0.053558 0.506425 0.686399
0.109926 -0.489217 0.840247
-0.466735 0.183426 0.217671
-0.221027 0.440223 0.250754
-0.455286 -0.231757 0.992398
0.500340 0.050364 0.699310
-0.488373 0.075712 0.692612
-0.135183 -0.477679 0.256952
-0.484139 0.065195 0.808877
0.339753 0.373752 0.280036
-0.172769 -0.476280 0.777378
0.412382 -0.269945 0.589669
-0.389184 -0.310527 0.423853
-0.022941 0.517690 0.860426
0.244794 0.442462 0.064552
0.465069 0.198892 0.305987
0.214722 -0.456245 0.444602
0.389889 0.307799 0.384169
0.500604 -0.052236 0.423693
0.151067 -0.465097 0.042494
0.442210 0.199327 -0.016657
0.093614 0.502151 0.210973
-0.320170 0.364121 0.038508
0.029622 -0.492193 0.324763
0.312461 -0.401685 0.531854
-0.441823 -0.262894 0.237020
-0.498000 0.053194 0.363644
0.474342 0.123574 0.038301
0.068722 0.490345 0.975271
0.034119 0.500969 0.089166
-0.058799 0.488699 0.205971
0.460299 -0.163078 0.076444
-0.001663 -0.502653 0.226192
-0.038017 0.487155 0.424453
-0.272167 0.440955 0.052185
-0.252926 -0.424830 0.053485
0.188201 -0.470160 -0.007219
-0.300328 -0.398932 0.071779
0.458269 0.234714 0.164184
-0.205242 -0.453045 0.942867
-0.494701 -0.059713 0.201945
0.361277 0.337630 0.855785
0.343054 -0.324054 0.009736
-0.435246 0.247232 0.122947
-0.371297 -0.332155 0.594090
-0.438049 0.241706 0.871956
0.511317 -0.109271 0.209155
0.399300 -0.302180 0.519052
0.322795 0.377271 0.606414
-0.134020 -0.482980 0.267777
-0.035233 0.497739 0.347938
0.496770 -0.132276 0.569562
0.462190 -0.214378 0.195227
-0.495551 0.050820 0.303296
0.179732 -0.476784 0.473491
0.255822 -0.433007 0.705186
0.482921 0.120714 0.726273
0.286781 -0.422008 0.200858
-0.400812 0.307646 -0.003779
0.048898 -0.502894 0.826244
-0.438480 -0.215163 0.512581
-0.323668 -0.375416 0.199934
0.394559 0.284857 0.950146
-0.223490 0.446198 0.556508
0.110901 0.492290 0.395057
-0.320903 -0.400414 0.447320
0.485977 -0.154440 0.923962
0.184653 0.471097 0.857682
0.407302 -0.317847 0.414824
0.475420 0.199260 0.308694
-0.489481 -0.105990 0.069849
0.446451 0.215507 0.421169
-0.440994 -0.241687 0.406975
0.138212 -0.483933 0.259330
0.497122 0.001524 0.552385
0.484545 0.124787 0.421430
-0.063197 0.490106 0.384650
0.344802 0.359317 0.350670
0.263960 -0.437334 0.761455
0.051398 -0.504903 0.510532
-0.450589 0.214163 0.321364
-0.463080 0.122887 0.448313
