x y z
0.439546 0.238327 0.698676
0.138459 -0.480447 0.808894
0.356851 0.350224 0.467788
-0.087310 -0.492318 0.495130
0.469217 0.172730 0.033237
-0.331108 0.374657 0.640365
-0.498624 0.037073 0.753937
-0.453413 -0.210752 0.204654
0.400363 0.299516 0.071477
0.431302 -0.252941 0.834511
-0.124237 0.484319 0.511880
-0.323771 0.381014 0.810410
-0.238846 -0.439264 0.328310
-0.231353 0.443256 0.668775
0.465412 0.182733 0.231156
0.174365 -0.468612 0.028661
-0.444445 -0.229061 0.654380
-0.403576 -0.295172 0.494196
0.468171 0.175545 0.682110
-0.355627 -0.351468 0.000952
0.223097 0.447468 0.913493
-0.108500 -0.488086 0.470271
0.013484 0.499818 0.774605
-0.120186 0.485341 0.605375
0.156941 -0.474731 0.064389
0.499992 0.002891 0.893315
0.252170 0.431753 0.602076
0.247823 0.434263 0.093529
0.060949 0.496271 0.340783
-0.097604 0.490381 0.428504
-0.120289 -0.485315 0.904483
0.114896 0.486620 0.644226
-0.266039 0.423348 0.325923
-0.499714 -0.016904 0.875012
0.423818 0.265289 0.473666
0.246322 -0.435116 0.586339
0.497269 0.052189 0.336194
0.452049 0.213663 0.884771
0.433455 -0.249233 0.061479
-0.123412 0.484530 0.096602
-0.496368 0.060158 0.755051
-0.373547 0.332359 0.334549
0.437628 0.241829 0.526228
0.128075 -0.483319 0.914828
0.201226 -0.457721 0.864156
0.499995 -0.002154 0.260431
-0.453620 -0.210307 0.910635
0.032872 0.498918 0.036470
0.029614 -0.499122 0.441622
-0.442430 -0.232929 0.334305
-0.320187 -0.384032 0.806161
-0.293307 0.404933 0.506209
0.092966 -0.491281 0.526608
-0.499678 0.017945 0.623574
-0.138916 0.480315 0.768205
-0.139684 0.480092 0.167171
0.063645 0.495933 0.010170
-0.488469 -0.106761 0.703209
0.465647 -0.182135 0.154838
-0.465307 -0.183002 0.961267
0.093868 -0.491110 0.269759
0.278272 0.415409 0.678958
-0.423775 0.265358 0.477637
-0.377305 0.328086 0.158182
0.449596 0.218778 0.442833
-0.148162 0.477544 0.783594
-0.360691 0.346269 0.663259
0.401044 0.298602 0.179619
-0.058555 0.496560 0.819733
0.227212 -0.445393 0.963447
0.298508 -0.401115 0.742574
0.012638 -0.499840 0.908756
0.472516 0.163490 0.355122
0.327888 0.377477 0.672525
0.231677 -0.443087 0.253681
0.063622 0.495936 0.763762
-0.046500 0.497833 0.785316
-0.335308 0.370902 0.243053
0.499830 -0.013039 0.458933
-0.315608 -0.387804 0.066422
-0.151535 0.476484 0.238403
-0.184527 -0.464704 0.016527
-0.310249 -0.392104 0.040387
-0.388306 -0.314990 0.779082
0.021051 0.499557 0.838902
0.040349 0.498369 0.336261
-0.231164 0.443355 0.586861
0.479327 0.142288 0.975965
0.201437 -0.457628 0.739284
-0.498587 0.037557 0.181845
0.394751 -0.306874 0.216518
-0.111187 0.487481 0.374266
-0.230697 -0.443598 0.534177
-0.449830 0.218295 0.710535
0.499491 0.022562 0.040952
0.418019 -0.274336 0.016112
-0.060097 -0.496375 0.166431
-0.276874 -0.416342 0.313271
-0.161613 -0.473161 0.270268
-0.231213 -0.443329 0.042982
0.195907 0.460022 0.546265
0.020675 -0.499572 0.232113
-0.040606 0.498348 0.444303
0.376526 0.328980 0.962482
-0.405104 0.293071 0.269608
-0.432371 0.251108 0.029821
-0.452732 -0.212212 0.060250
-0.399959 -0.300055 0.633648
0.123614 -0.484479 0.237187
0.497650 0.048423 0.537268
-0.499969 -0.005528 0.424060
0.499998 -0.001465 0.218444
-0.148176 0.477539 0.919911
-0.069197 -0.495189 0.043693
-0.022684 -0.499485 0.196143
-0.499872 -0.011333 0.909381
0.375234 -0.330453 0.915885
-0.207914 -0.454721 0.996012
-0.192481 -0.461466 0.624817
0.221279 -0.448370 0.409569
0.413702 -0.280804 0.864727
0.050146 -0.497479 0.525421
0.463615 -0.187247 0.795017
-0.391099 0.311516 0.316768
-0.305518 -0.395802 0.946163
0.499896 0.010203 0.512634
0.287810 -0.408859 0.799155
0.307025 0.394634 0.617156
0.129436 -0.482956 0.393224
-0.293885 -0.404514 0.565790
0.305692 -0.395667 0.728691
-0.008461 0.499928 0.258731
-0.044403 -0.498024 0.151564
0.026616 0.499291 0.992077
0.499773 -0.015068 0.655901
0.395352 0.306099 0.801575
0.436415 -0.244012 0.957895
0.082923 0.493076 0.977966
0.464361 0.185388 0.044650
0.296163 -0.402849 0.711591
0.427477 -0.259352 0.730692
0.480888 -0.136917 0.498810
0.411177 -0.284488 0.072697
-0.465560 -0.182356 0.113076
-0.384588 0.319519 0.396135
0.376489 -0.329023 0.059244
-0.455478 0.206252 0.076191
-0.292231 -0.405710 0.560205
-0.386781 -0.316860 0.385229
-0.491325 0.092736 0.935464
-0.113947 -0.486843 0.241488
-0.459731 -0.196589 0.147340
-0.443075 0.231700 0.961663
0.493760 -0.078747 0.541076
0.306447 -0.395083 0.964345
-0.468423 -0.174871 0.121916
-0.020734 -0.499570 0.412397
-0.131779 0.482322 0.782726
0.297923 0.401549 0.837074
0.032496 -0.498943 0.871365
-0.003519 -0.499988 0.419263
0.479596 0.141379 0.644715
0.302880 -0.397824 0.102730
-0.438109 0.240957 0.594373
0.053281 -0.497153 0.619988
0.331883 0.373970 0.697099
-0.105224 -0.488803 0.435803
0.384708 -0.319374 0.584967
-0.256362 0.429277 0.431695
-0.220753 -0.448629 0.128045
0.337847 -0.368591 0.635824
-0.492130 -0.088365 0.384390
-0.207059 -0.455112 0.456310
0.482816 -0.129957 0.727340
-0.498231 0.042021 0.479392
0.242375 -0.437326 0.487498
0.131253 0.482465 0.235564
-0.053093 -0.497173 0.162144
0.196244 -0.459878 0.381236
0.489744 0.100749 0.132884
-0.158854 0.474094 0.262879
0.395725 0.305616 0.538057
0.442920 -0.231995 0.444504
0.307984 -0.393885 0.880559
0.415446 0.278216 0.615654
0.493629 0.079565 0.885793
0.198919 0.458728 0.703608
0.057882 0.496638 0.155000
0.371138 -0.335047 0.199467
-0.039398 -0.498445 0.047035
-0.486134 -0.116936 0.809734
0.435118 -0.246318 0.644673
0.499838 0.012719 0.678234
0.498433 0.039552 0.073123
-0.142839 -0.479163 0.590873
-0.465929 -0.181411 0.523712
-0.429428 -0.256108 0.570088
0.274258 0.418070 0.071480
-0.269729 0.421007 0.740595
0.142095 -0.479384 0.898489
