x y z
-0.463126 0.188453 0.740522
0.391183 0.311410 0.940630
-0.465524 -0.182449 0.418160
-0.297232 -0.402061 0.495139
0.127287 0.483527 0.277246
0.491063 0.094113 0.275717
-0.483955 0.125647 0.194515
0.333661 -0.372385 0.403579
-0.411243 0.284392 0.232064
0.483195 -0.128540 0.713036
0.479868 -0.140452 0.424030
0.499259 0.027220 0.500146
0.463601 0.187280 0.285887
-0.185481 -0.464324 0.966712
-0.464643 0.184680 0.267437
0.466923 -0.178837 0.596142
0.499981 -0.004373 0.798965
-0.255885 -0.429561 0.574282
0.492917 0.083860 0.660736
-0.017253 -0.499702 0.691243
0.036133 -0.498693 0.813043
-0.269440 -0.421191 0.470199
0.247241 -0.434594 0.763365
-0.062935 -0.496023 0.573998
0.143616 -0.478930 0.201257
-0.448000 0.222028 0.321352
0.173843 -0.468806 0.554082
0.448467 -0.221082 0.972240
-0.496083 -0.062461 0.362738
-0.460471 -0.194851 0.999851
0.421737 0.268585 0.433133
-0.498322 0.040933 0.722397
-0.153862 0.475738 0.071823
-0.461866 -0.191521 0.956967
0.446159 -0.225705 0.124667
-0.283758 0.411681 0.147037
-0.497650 -0.048420 0.354702
-0.478421 -0.145305 0.625457
0.266033 0.423352 0.924317
-0.441393 0.234887 0.065711
-0.327653 0.377681 0.527977
0.037397 -0.498600 0.247745
-0.291863 -0.405975 0.816265
0.422795 -0.266916 0.844246
-0.014324 -0.499795 0.746824
0.481436 -0.134978 0.641501
0.266735 0.422910 0.799335
-0.229674 -0.444128 0.939290
0.143701 0.478905 0.206345
0.046968 0.497789 0.400352
0.422337 0.267641 0.661814
0.492567 -0.085895 0.923757
-0.466831 0.179077 0.753469
-0.048897 0.497603 0.515439
-0.073686 -0.494541 0.811459
0.296803 -0.402378 0.985706
-0.452544 -0.212613 0.748156
0.100336 -0.489829 0.960132
0.374890 0.330843 0.008191
0.398091 0.302528 0.735179
0.497851 -0.046309 0.917546
-0.147329 0.477801 0.537530
-0.331571 -0.374246 0.139503
-0.175857 -0.468054 0.376177
-0.127154 -0.483562 0.744989
-0.384365 0.319786 0.607720
0.003333 0.499989 0.808981
0.456500 0.203980 0.364579
0.371042 0.335154 0.410495
0.426403 -0.261114 0.743676
-0.339217 -0.367331 0.992982
-0.142451 0.479278 0.229794
0.232186 -0.442820 0.074219
0.055452 -0.496916 0.302788
0.417647 -0.274902 0.494948
0.338945 0.367582 0.141865
0.188346 -0.463169 0.036006
0.401815 0.297565 0.402639
0.496190 0.061604 0.479055
0.481481 -0.134819 0.263913
-0.188897 0.462945 0.117314
0.235592 -0.441018 0.267736
-0.414539 0.279567 0.302403
0.293605 0.404718 0.530996
0.030038 -0.499097 0.731153
0.427674 -0.259027 0.205530
-0.499996 -0.002103 0.041618
0.138466 -0.480445 0.084003
0.498819 -0.034349 0.436839
-0.196768 -0.459654 0.336576
-0.083099 -0.493046 0.931634
0.399102 0.301193 0.788240
0.083966 -0.492899 0.126908
-0.169941 0.470234 0.268447
-0.498498 -0.038724 0.044456
-0.498083 -0.043741 0.382536
0.474978 -0.156192 0.316255
-0.342579 -0.364197 0.072838
-0.182560 0.465480 0.720629
0.471385 -0.166722 0.770364
0.394742 -0.306886 0.288381
-0.288298 0.408515 0.057735
-0.089559 0.491914 0.310121
0.461928 0.191369 0.571560
-0.480852 0.137044 0.525096
-0.498972 -0.032047 0.652450
-0.054617 -0.497008 0.187327
0.490064 0.099182 0.758617
0.494422 0.074476 0.633575
-0.499696 -0.017433 0.336509
0.082590 -0.493132 0.670834
0.366921 0.339660 0.973034
0.338149 0.368314 0.576242
0.230301 -0.443803 0.233562
-0.455421 -0.206378 0.201101
-0.223221 -0.447406 0.654932
0.265079 -0.423950 0.667924
0.498162 -0.042832 0.138536
0.230457 -0.443722 0.483938
0.358904 0.348120 0.808712
-0.489353 0.102633 0.999562
-0.365871 -0.340790 0.499408
0.470783 0.168414 0.388383
0.083672 -0.492949 0.270125
-0.493921 -0.077731 0.961978
0.092485 0.491372 0.938466
-0.389776 0.313169 0.132690
-0.227981 0.445000 0.055719
0.430287 0.254662 0.560034
0.267963 -0.422132 0.226938
0.341803 0.364926 0.015595
0.074478 -0.494422 0.531637
0.444391 -0.229165 0.398760
-0.446938 0.224158 0.020645
-0.458269 -0.199973 0.328274
0.095014 0.490889 0.827184
0.497411 -0.050816 0.397424
0.431628 0.252383 0.393214
-0.499930 -0.008375 0.955035
0.456989 0.202883 0.025140
-0.370554 0.335693 0.628299
-0.498261 -0.041668 0.942170
0.187345 -0.463575 0.418615
-0.245391 0.435641 0.140332
0.398837 -0.301544 0.378523
0.463693 0.187052 0.706085
-0.087797 -0.492231 0.431085
0.273887 -0.418313 0.396428
-0.498268 0.041578 0.059291
-0.474615 -0.157292 0.527107
0.499344 0.025600 0.606365
0.237617 -0.439930 0.210756
0.442521 0.232755 0.958241
0.456502 0.203975 0.739777
0.335058 0.371128 0.572767
0.140408 -0.479881 0.109764
-0.494942 -0.070941 0.650278
0.454606 0.208167 0.728260
0.106241 -0.488583 0.445978
0.230489 -0.443706 0.355290
0.312222 0.390535 0.874574
-0.244290 0.436260 0.012472
-0.194635 -0.460562 0.324724
-0.440282 0.236964 0.496407
-0.406238 -0.291498 0.508314
-0.454068 0.209337 0.774641
0.427185 -0.259833 0.428803
-0.275069 -0.417537 0.996467
-0.005312 0.499972 0.752222
-0.170157 -0.470156 0.182483
-0.479566 -0.141480 0.316212
-0.123664 0.484466 0.628181
-0.412474 0.282604 0.677406
0.214915 0.451455 0.632300
-0.142097 -0.479383 0.188637
-0.433554 -0.249060 0.253441
-0.494275 -0.075446 0.918657
-0.499648 -0.018747 0.516348
0.477576 0.148057 0.831726
-0.370488 -0.335766 0.861613
-0.155629 0.475163 0.186200
-0.301515 0.398859 0.582212
-0.219075 0.449451 0.581225
-0.276861 0.416351 0.687826
-0.063431 -0.495960 0.001733
0.075933 -0.494201 0.049125
0.450182 -0.217570 0.188770
0.451059 0.215745 0.896222
-0.121040 0.485128 0.379635
-0.489835 0.100306 0.249899
-0.318813 -0.385173 0.713928
0.339524 0.367047 0.296147
-0.333098 0.372888 0.068666
-0.484329 -0.124200 0.443675
-0.436841 0.243249 0.507503
0.478313 0.145660 0.767796
-0.128602 0.483179 0.095014
0.373331 -0.332602 0.232928
0.064682 -0.495799 0.358110
0.170096 0.470178 0.855702
