x y z
0.106207 0.488590 0.024905
0.188994 -0.462905 0.259541
0.142737 -0.479193 0.704452
-0.059830 -0.496407 0.908104
-0.457937 0.200733 0.185198
0.392334 0.309958 0.625127
0.123695 -0.484458 0.115003
-0.382363 0.322178 0.581717
0.107783 -0.488245 0.804505
-0.467911 0.176238 0.685261
0.121449 0.485026 0.440068
0.388078 -0.315271 0.890453
0.181851 0.465758 0.326470
-0.103321 0.489208 0.422252
0.352915 -0.354191 0.929742
0.449601 0.218766 0.948331
0.450518 0.216873 0.612609
-0.447748 0.222535 0.372988
0.495745 -0.065092 0.734274
0.460495 -0.194792 0.202001
-0.182725 0.465415 0.297482
-0.489366 0.102573 0.214562
0.446360 0.225306 0.446770
0.275233 0.417429 0.158218
-0.344457 -0.362421 0.459603
0.409497 -0.286901 0.027139
-0.385257 -0.318711 0.065316
-0.372991 -0.332983 0.822997
-0.466398 0.180204 0.569346
-0.357464 0.349599 0.687173
0.464541 0.184937 0.113181
0.495818 -0.064533 0.238773
0.398678 -0.301754 0.430386
0.385375 -0.318569 0.576442
0.112106 -0.487270 0.066903
0.451536 0.214744 0.404668
0.221442 -0.448289 0.295467
-0.039437 0.498442 0.296343
-0.291536 0.406210 0.935730
-0.146217 -0.478143 0.363667
0.139728 0.480079 0.847757
0.320027 -0.384165 0.334189
-0.376046 0.329530 0.327101
0.246922 0.434775 0.769811
0.248846 -0.433677 0.317969
-0.484896 -0.121967 0.539158
-0.434427 0.247534 0.136332
0.285085 -0.410763 0.192286
0.235603 0.441012 0.173315
0.316949 0.386708 0.380598
0.420111 0.271121 0.988018
-0.247293 -0.434564 0.985536
0.401357 -0.298182 0.069084
-0.219232 0.449375 0.523341
0.426297 0.261288 0.918061
0.058009 -0.496624 0.723377
0.423995 -0.265006 0.703677
0.491069 -0.094083 0.736875
0.474284 -0.158288 0.709637
-0.490253 -0.098246 0.079934
-0.085022 0.492718 0.553407
-0.447592 0.222848 0.758261
0.316758 -0.386865 0.314735
0.498906 -0.033052 0.895707
-0.481853 0.133481 0.148250
-0.389052 0.314067 0.435093
-0.101583 -0.489572 0.381476
0.072820 0.494669 0.586988
0.479695 0.141040 0.463379
-0.263351 -0.425025 0.042084
-0.354454 0.352650 0.961691
-0.463031 0.188686 0.969045
0.150114 -0.476934 0.999218
0.132753 0.482055 0.809326
-0.194273 -0.460714 0.349417
-0.491060 -0.094129 0.543427
-0.242874 0.437049 0.667499
0.222193 0.447917 0.352683
0.381910 0.322715 0.048613
0.473635 -0.160218 0.603778
-0.424589 0.264053 0.630306
0.499957 0.006547 0.632787
-0.499791 0.014466 0.988525
0.439331 -0.238723 0.599789
-0.498713 -0.035849 0.625857
-0.039628 0.498427 0.600653
0.427063 0.260033 0.551622
-0.497193 0.052910 0.992687
-0.395419 -0.306012 0.979588
-0.415974 -0.277427 0.581092
-0.436537 -0.243794 0.805356
-0.499507 0.022194 0.174865
0.488698 -0.105710 0.459430
-0.443835 0.230241 0.363603
0.097407 0.490420 0.684270
0.458016 -0.200553 0.287150
0.490883 -0.095049 0.946165
0.253488 -0.430980 0.951314
-0.313870 0.389211 0.857844
-0.117679 0.485954 0.511832
-0.494507 0.073913 0.230680
0.062748 0.496047 0.556704
0.298179 -0.401359 0.025031
0.407777 0.289341 0.987528
0.213272 -0.452233 0.407116
0.362331 -0.344552 0.391763
-0.133553 0.481834 0.866000
-0.093528 0.491175 0.930412
-0.381687 -0.322979 0.628965
0.045439 -0.497931 0.038880
0.313107 0.389825 0.293388
-0.270291 0.420646 0.483089
-0.494887 0.071325 0.657411
0.344907 -0.361993 0.225259
-0.179448 0.466689 0.049259
0.376697 0.328784 0.441225
0.401316 -0.298237 0.193173
-0.349914 0.357156 0.896378
-0.285914 -0.410187 0.418963
-0.144895 0.478545 0.251854
-0.317615 -0.386161 0.286337
0.340975 0.365699 0.517903
0.280581 0.413853 0.832840
0.187288 0.463598 0.109389
0.281649 -0.413127 0.337603
-0.148722 -0.477370 0.636039
0.449181 -0.219628 0.368556
-0.070708 -0.494975 0.143815
-0.238557 -0.439421 0.904102
0.301316 -0.399010 0.302702
-0.372705 -0.333303 0.485020
-0.461425 0.192581 0.624287
0.111312 -0.487452 0.257313
-0.248554 0.433844 0.481782
0.400270 -0.299640 0.506830
0.064723 0.495793 0.702655
0.155310 -0.475267 0.602408
0.499838 0.012742 0.294451
0.498834 -0.034130 0.633942
-0.267297 -0.422554 0.975330
0.415319 0.278406 0.455102
0.361953 0.344950 0.706361
-0.393978 0.307866 0.749106
0.162024 0.473020 0.683965
0.038372 0.498525 0.919766
-0.464162 0.185886 0.256611
0.381916 -0.322708 0.529964
-0.418509 -0.273588 0.548520
-0.486678 0.114648 0.682732
0.440441 0.236669 0.096286
-0.466108 0.180952 0.297925
0.346317 -0.360645 0.039794
-0.207905 0.454726 0.221781
-0.421041 0.269675 0.336699
0.286411 0.409840 0.666350
0.244148 -0.436339 0.947994
0.207035 0.455123 0.020576
-0.497154 0.053274 0.741862
-0.300471 -0.399646 0.928666
0.487955 0.109089 0.834913
0.101041 0.489684 0.707580
0.175663 0.468127 0.199230
0.496967 -0.054989 0.507985
0.466570 0.179757 0.445541
0.229946 -0.443987 0.632864
0.390259 0.312566 0.539845
-0.453591 0.210370 0.765884
-0.227867 -0.445058 0.060203
0.013238 -0.499825 0.073512
-0.107322 -0.488346 0.961317
0.265195 -0.423877 0.855303
-0.440271 0.236984 0.886995
0.487493 0.111131 0.166767
0.137048 0.480851 0.332999
-0.121996 0.484889 0.987109
0.416033 0.277338 0.354136
-0.387973 -0.315399 0.568725
0.482788 -0.130062 0.443747
-0.397330 0.303528 0.778327
0.279628 0.414498 0.965433
0.499942 -0.007592 0.444936
0.272669 0.419108 0.470821
0.466836 -0.179065 0.265697
0.339216 -0.367331 0.500025
0.441745 0.234224 0.981973
0.227504 0.445244 0.680890
-0.337600 0.368817 0.162650
-0.064416 0.495833 0.677392
-0.219893 -0.449051 0.400459
0.422130 -0.267968 0.966530
-0.029931 -0.499103 0.070624
0.091629 0.491532 0.716210
0.194692 0.460538 0.201071
-0.069121 -0.495199 0.424418
0.175888 -0.468042 0.061141
0.353577 -0.353530 0.593116
-0.263046 -0.425214 0.605635
-0.273799 -0.418371 0.168924
0.009036 -0.499918 0.749011
0.326601 0.378592 0.084076
