x y z
0.171271 0.469751 0.305264
0.140239 0.479930 0.413838
-0.499590 0.020240 0.063885
-0.126240 0.483801 0.208506
-0.499966 0.005794 0.109397
0.143462 -0.478977 0.556941
0.124926 0.484142 0.129074
-0.476296 0.152126 0.996685
0.479338 -0.142249 0.179073
0.000467 0.500000 0.361785
0.280740 0.413745 0.349163
0.253211 -0.431143 0.465085
-0.265454 0.423715 0.752820
0.382745 0.321723 0.471050
-0.062320 0.496101 0.740330
0.289375 -0.407753 0.973121
-0.207725 0.454808 0.298009
-0.488055 -0.108637 0.169273
0.424941 -0.263486 0.226163
0.050450 0.497448 0.380016
-0.463129 -0.188444 0.280418
0.417240 -0.275519 0.978407
-0.488025 -0.108774 0.714360
0.235190 -0.441232 0.453341
-0.394923 -0.306653 0.410003
-0.487095 0.112867 0.676803
-0.187979 -0.463318 0.068202
0.465931 0.181406 0.787773
0.498931 0.032676 0.488093
0.499951 -0.006965 0.447048
0.480507 0.138251 0.993806
-0.384943 -0.319090 0.890495
0.498401 -0.039951 0.543393
-0.089705 0.491887 0.430676
0.020420 -0.499583 0.753590
0.137389 0.480754 0.708605
0.493974 0.077394 0.878814
0.187919 0.463343 0.091003
-0.258123 0.428220 0.006079
-0.165640 -0.471766 0.516138
-0.344098 0.362763 0.463188
-0.499992 0.002783 0.631870
-0.413982 -0.280390 0.058122
-0.404986 0.293234 0.708720
0.062381 0.496093 0.306569
-0.241245 0.437951 0.510973
0.490140 -0.098806 0.319600
0.398350 0.302188 0.471726
0.266301 0.423183 0.218323
0.458881 -0.198566 0.230274
-0.053067 0.497176 0.104329
-0.147721 0.477680 0.410581
0.217684 -0.450126 0.979494
-0.345376 -0.361546 0.492671
-0.495915 -0.063783 0.473168
0.447518 -0.222997 0.181201
-0.076576 -0.494101 0.960737
-0.464939 -0.183935 0.025831
-0.397087 -0.303846 0.401314
0.493610 0.079682 0.604926
-0.017498 0.499694 0.412701
0.334369 -0.371749 0.404599
-0.452802 0.212061 0.644696
-0.497754 -0.047344 0.418396
-0.494159 0.076200 0.156754
-0.073733 0.494534 0.525646
-0.489128 0.103701 0.382528
-0.437901 -0.241335 0.056303
-0.364978 0.341747 0.837964
0.050676 0.497425 0.488410
0.437764 -0.241584 0.136489
0.499068 0.030509 0.072542
-0.330900 0.374840 0.120189
-0.218914 0.449529 0.411029
-0.499795 -0.014320 0.423286
0.448373 -0.221272 0.994441
0.077042 0.494029 0.959091
-0.005432 0.499970 0.772217
-0.311171 -0.391373 0.624380
0.493764 0.078722 0.156191
-0.013244 -0.499825 0.716995
0.349775 0.357291 0.575410
0.352034 -0.355066 0.873412
0.381778 0.322871 0.054106
0.370845 -0.335371 0.290364
0.169226 -0.470492 0.915888
0.096429 0.490613 0.181570
0.222844 -0.447594 0.385242
0.200520 -0.458030 0.449200
0.081287 0.493348 0.067593
0.450540 0.216825 0.270863
-0.495286 0.068499 0.137243
0.412727 0.282234 0.711933
0.207812 -0.454768 0.697144
-0.278448 0.415291 0.203655
0.466463 -0.180034 0.450298
0.493662 -0.079357 0.496036
-0.483135 0.128767 0.175234
0.476228 0.152339 0.185980
-0.262493 0.425556 0.832702
0.210994 -0.453301 0.735381
0.439257 -0.238858 0.420390
0.343122 0.363686 0.511928
-0.470963 0.167911 0.977001
-0.489179 -0.103458 0.308690
0.482656 0.130551 0.329171
-0.494183 0.076044 0.561365
-0.457261 0.202269 0.856062
0.489349 0.102651 0.858438
0.463384 0.187816 0.586176
-0.438348 -0.240522 0.755406
-0.459339 0.197504 0.591871
-0.043971 -0.498063 0.359637
-0.111686 0.487367 0.197142
-0.455377 0.206475 0.920901
-0.350466 0.356614 0.544392
0.162070 -0.473005 0.657742
0.367407 -0.339135 0.323479
-0.058027 0.496621 0.046336
-0.349976 -0.357095 0.154696
0.205952 0.455613 0.909977
0.211236 -0.453188 0.503042
0.469045 -0.173196 0.017308
0.499564 0.020866 0.255840
-0.070824 0.494959 0.734999
-0.499215 -0.028005 0.684794
-0.017256 0.499702 0.659291
0.206516 -0.455358 0.057398
0.119524 0.485504 0.357504
0.347775 -0.359239 0.709348
0.335840 0.370421 0.611305
0.190527 0.462276 0.230795
0.210638 0.453466 0.542536
0.095812 0.490734 0.354245
-0.110590 0.487616 0.482422
-0.469051 -0.173180 0.586922
-0.477505 -0.148287 0.218027
0.017422 -0.499696 0.556735
-0.007367 -0.499946 0.642635
-0.221941 -0.448043 0.819820
-0.267749 0.422268 0.215383
0.232880 0.442455 0.664811
0.391935 -0.310463 0.116478
0.404929 -0.293314 0.712471
0.244523 0.436129 0.228406
0.495609 -0.066122 0.522258
0.112703 -0.487133 0.987741
-0.209181 -0.454140 0.581534
0.499890 0.010500 0.895746
0.441483 0.234719 0.741281
0.434542 0.247333 0.012354
0.170303 -0.470103 0.321686
-0.497569 0.049242 0.599323
0.394054 0.307768 0.306816
-0.205242 -0.455934 0.522475
0.433198 0.249678 0.457829
-0.499425 -0.023976 0.682840
-0.491742 0.090495 0.069929
-0.499419 -0.024100 0.549893
-0.462614 -0.189705 0.588439
0.050708 -0.497422 0.214147
-0.388176 -0.315150 0.997194
0.286176 -0.410004 0.829290
0.474869 0.156522 0.047548
0.488144 0.108238 0.891353
0.476464 0.151599 0.221265
-0.495015 -0.070427 0.056330
0.014471 -0.499791 0.644278
0.470478 -0.169266 0.740386
0.499988 -0.003477 0.220401
-0.377739 -0.327588 0.190928
0.497382 -0.051097 0.160143
-0.485993 0.117518 0.148290
0.472004 0.164962 0.458041
0.276544 -0.416561 0.537352
0.497625 0.048677 0.075636
-0.444920 0.228136 0.335514
-0.438736 0.239814 0.444174
0.496913 -0.055478 0.683328
0.153897 -0.475726 0.450096
-0.439438 0.238525 0.770766
-0.395847 0.305459 0.327097
-0.471146 0.167396 0.267088
-0.002640 -0.499993 0.150803
0.443210 0.231441 0.770214
-0.269156 -0.421373 0.435336
-0.295580 -0.403277 0.868897
-0.289014 0.408009 0.740569
0.494213 0.075850 0.292124
0.388167 -0.315161 0.247445
0.021592 0.499534 0.809091
0.346073 -0.360879 0.143034
-0.492580 0.085818 0.423017
0.187456 0.463530 0.909644
0.495966 0.063388 0.410118
-0.293409 -0.404859 0.708246
-0.245640 0.435501 0.404565
0.297758 0.401672 0.086905
0.394764 -0.306857 0.451919
-0.466297 -0.180463 0.393204
