x y z
-0.068690 0.495259 0.516194
0.465176 0.183334 0.560172
0.284277 0.411323 0.732449
-0.024955 -0.499377 0.679499
0.491972 -0.089241 0.069770
-0.407509 0.289717 0.509860
0.194328 -0.460691 0.931822
-0.019725 -0.499611 0.422968
-0.412280 0.282887 0.296246
0.058525 -0.496563 0.004785
-0.383441 0.320894 0.900879
0.239287 -0.439024 0.141876
-0.220418 0.448794 0.905111
0.496998 0.054711 0.499458
-0.482998 -0.129279 0.956324
0.488803 0.105223 0.547667
0.080125 -0.493538 0.999034
-0.479734 -0.140910 0.706135
-0.403434 0.295365 0.279536
-0.207515 0.454904 0.629675
-0.499405 -0.024387 0.642747
0.458853 -0.198630 0.778713
-0.102257 0.489432 0.459285
0.499780 0.014835 0.374476
-0.462679 0.189547 0.024185
0.101740 -0.489540 0.333811
0.163975 0.472347 0.208195
0.201957 0.457399 0.723185
-0.408899 0.287753 0.187703
0.497147 -0.053335 0.477616
-0.343569 -0.363264 0.382306
-0.428783 -0.257187 0.002675
0.185713 0.464231 0.500731
-0.397366 0.303481 0.516351
0.380726 -0.324111 0.637967
0.280539 0.413881 0.096099
0.384675 0.319413 0.517716
0.392037 0.310333 0.325143
0.139842 0.480046 0.827284
-0.203157 -0.456867 0.415110
0.252830 0.431366 0.342463
-0.424330 -0.264470 0.624948
0.100748 -0.489745 0.869520
0.368739 0.337686 0.390800
0.343370 0.363452 0.579777
-0.114654 -0.486677 0.860805
0.499710 -0.017035 0.857756
-0.114616 -0.486686 0.269036
0.336472 0.369847 0.258965
0.105378 0.488769 0.078171
0.032450 0.498946 0.749661
-0.178417 -0.467084 0.175773
0.232079 0.442876 0.186824
0.160872 -0.473413 0.904885
0.489952 0.099735 0.205568
-0.397785 -0.302931 0.112939
-0.137883 0.480612 0.473301
0.222103 0.447963 0.676276
0.449663 0.218640 0.706527
0.495440 -0.067371 0.229764
-0.111395 -0.487433 0.620184
0.472194 0.164418 0.722139
-0.455612 -0.205956 0.708532
0.426812 0.260445 0.051094
0.299039 -0.400719 0.053559
-0.444812 0.228346 0.035344
-0.198476 0.458920 0.891687
-0.223239 -0.447397 0.496470
-0.483709 0.126593 0.543793
-0.140614 0.479821 0.382376
0.499659 0.018461 0.534398
0.377990 -0.327297 0.639780
-0.447558 -0.222917 0.038845
0.292665 -0.405398 0.715839
-0.360959 -0.345989 0.079441
-0.107000 -0.488417 0.231430
-0.238050 0.439696 0.475370
0.497203 0.052817 0.664891
-0.492388 0.086916 0.020398
-0.459853 0.196304 0.793252
0.367330 0.339218 0.901471
0.495186 -0.069219 0.645925
-0.477346 0.148797 0.140690
0.005230 0.499973 0.223675
0.191760 -0.461766 0.919018
-0.295534 0.403311 0.325508
0.190884 0.462129 0.829577
0.327973 -0.377404 0.629052
-0.104648 0.488926 0.325609
0.381093 -0.323679 0.619065
-0.091396 0.491576 0.292314
0.462639 0.189645 0.767965
0.411144 -0.284535 0.636252
0.489276 -0.103000 0.645192
-0.483382 -0.127835 0.238989
0.134215 -0.481650 0.481527
0.258496 -0.427995 0.446305
0.499977 0.004836 0.595221
0.495750 0.065052 0.252391
-0.492202 0.087962 0.476255
-0.151370 -0.476536 0.578211
-0.035497 -0.498738 0.002165
0.178003 0.467242 0.345387
-0.034185 0.498830 0.961662
0.498679 0.036318 0.361117
-0.154216 0.475623 0.402006
0.484669 0.122866 0.750577
-0.091586 0.491540 0.101952
0.049543 0.497539 0.389908
-0.229197 -0.444375 0.474636
-0.479330 -0.142276 0.863596
0.166419 0.471492 0.399676
-0.455674 -0.205818 0.378448
0.095676 0.490761 0.242462
0.095800 0.490737 0.416064
0.031997 -0.498975 0.443115
0.253568 -0.430933 0.818020
-0.370394 0.335870 0.810512
-0.416703 0.276331 0.298410
-0.040059 0.498393 0.113387
-0.175964 0.468014 0.232390
-0.347353 0.359647 0.268136
0.488382 0.107159 0.702705
-0.060771 -0.496293 0.377200
0.353854 -0.353253 0.511130
-0.152828 0.476071 0.059335
0.122551 0.484749 0.197650
-0.461398 0.192644 0.195711
0.331333 0.374457 0.867366
-0.230326 -0.443790 0.121585
0.158354 -0.474262 0.474448
-0.030690 -0.499057 0.953262
-0.222511 -0.447760 0.164381
-0.452185 0.213375 0.063331
0.488349 0.107310 0.863406
-0.207418 -0.454948 0.901970
0.413451 0.281173 0.119159
0.499424 0.023986 0.213198
-0.349184 -0.357870 0.159259
0.437437 -0.242175 0.988629
-0.428340 0.257924 0.886362
0.341548 0.365165 0.289776
-0.021417 0.499541 0.753824
-0.253587 -0.430922 0.834851
0.377100 0.328322 0.383476
0.280710 0.413766 0.813246
0.041523 -0.498273 0.028028
0.076224 0.494156 0.882710
-0.367851 -0.338652 0.477833
0.298371 -0.401216 0.095692
0.004058 -0.499984 0.821909
-0.136249 0.481078 0.360394
-0.268313 0.421910 0.885020
-0.387384 0.316123 0.187461
0.315360 -0.388005 0.703224
0.311694 0.390956 0.472906
-0.175334 -0.468250 0.364692
0.273610 -0.418494 0.081564
0.500000 0.000615 0.296513
-0.142485 0.479268 0.268955
0.428225 -0.258115 0.650919
0.166526 -0.471454 0.675044
0.434275 -0.247800 0.055653
-0.085088 0.492707 0.858901
-0.004802 0.499977 0.715996
-0.203760 -0.456598 0.941580
-0.085216 0.492685 0.586025
0.064108 0.495873 0.290300
-0.225076 0.446476 0.892163
0.352866 0.354240 0.814601
-0.044471 -0.498018 0.889142
0.027033 0.499269 0.435382
0.439186 -0.238989 0.059543
0.291098 -0.406525 0.503329
-0.406916 -0.290550 0.356278
-0.216798 0.450554 0.733605
-0.328423 -0.377012 0.869901
0.463544 0.187423 0.619724
0.445175 -0.227638 0.575007
0.341976 -0.364764 0.015004
-0.434420 -0.247546 0.450506
-0.455493 0.206220 0.197765
0.285194 0.410687 0.285227
-0.436797 -0.243327 0.022666
-0.443413 -0.231052 0.963359
-0.291403 -0.406305 0.000262
-0.151595 0.476465 0.227366
-0.116594 0.486216 0.141219
-0.285738 0.410309 0.979066
-0.458656 0.199084 0.006974
-0.072645 0.494695 0.747022
0.166402 -0.471498 0.925604
0.461279 -0.192929 0.136549
-0.494088 0.076662 0.687149
0.110332 -0.487675 0.831278
0.276269 0.416744 0.490387
-0.493213 0.082105 0.540326
-0.497180 0.053032 0.707769
0.285397 -0.410547 0.081484
-0.449546 -0.218879 0.988323
