x y z
0.105027 -0.472963 0.172117
0.470885 -0.170720 0.762483
0.173434 0.482839 0.078693
-0.053515 -0.492018 0.705644
-0.056723 0.484250 0.629025
-0.383300 0.289933 0.091093
-0.483689 0.085099 0.505565
-0.122985 0.480537 0.049903
-0.228551 0.442835 0.057087
0.505374 0.002381 0.220373
-0.497107 0.065600 0.539966
0.134204 -0.473813 0.401561
-0.493789 -0.088495 0.046112
-0.011808 -0.493743 0.097708
-0.354099 0.348553 0.555210
-0.059908 -0.500435 0.442418
0.054032 0.503081 0.417674
0.470556 -0.182864 0.007093
0.172383 0.469257 0.226958
0.490432 -0.144334 0.169153
0.501660 0.024063 0.848938
0.394081 -0.306079 0.527025
-0.278744 0.411033 0.745401
-0.507243 0.062705 0.619646
0.356103 0.345003 0.619094
0.417942 -0.287016 0.086375
0.460731 0.206078 0.101951
-0.294490 0.389127 0.203130
0.503443 -0.002391 0.431029
-0.299787 0.394786 0.965938
-0.483067 -0.200976 0.764429
-0.502805 0.025749 0.108196
0.086694 -0.481973 0.200629
-0.290172 -0.408336 0.312511
-0.302441 0.392947 0.390327
0.019485 0.489328 0.806274
-0.483424 0.054319 0.840970
-0.200672 -0.475775 0.436105
-0.321987 0.383184 0.220691
0.496111 -0.081598 0.349737
0.257905 0.425683 0.715711
-0.055264 -0.499838 0.068440
0.076687 -0.465362 0.404572
-0.484842 -0.038505 0.915005
0.277313 -0.419216 0.719101
-0.474666 -0.150910 0.458027
-0.358070 0.376674 0.528509
-0.251324 -0.426671 0.591808
0.213585 -0.442531 0.793850
-0.489104 -0.125053 0.866573
0.018745 0.508522 0.880768
-0.371721 -0.355259 0.461291
0.153428 0.491985 0.850839
-0.464222 0.187417 0.916568
-0.176500 -0.469314 0.026610
0.405572 0.318500 0.195809
0.095970 0.497753 0.019956
-0.068602 -0.483614 0.135342
0.378000 0.337053 0.723863
0.513248 -0.032550 0.466839
0.057000 0.490440 0.347820
-0.502147 0.068295 0.963305
-0.416988 -0.287429 0.422064
0.051134 -0.495966 0.749971
-0.109489 -0.498182 0.406038
0.265614 -0.434285 -0.009728
0.224328 -0.452564 0.725241
-0.202007 0.455064 0.778967
-0.314925 -0.372779 0.950984
-0.484987 -0.119258 0.383699
0.432759 0.251838 0.156774
0.205649 -0.443281 0.554852
-0.493523 -0.092803 0.501359
0.321392 0.407948 0.038915
-0.384026 -0.320906 0.282472
-0.511207 -0.018253 0.115359
-0.504908 -0.022217 0.170765
-0.402782 0.305420 0.665982
-0.034039 0.488997 0.350708
0.159052 0.465520 0.794533
-0.477472 0.126988 0.186067
-0.452716 0.247587 0.490249
-0.230630 -0.449514 0.489844
0.371236 -0.321911 0.867750
0.418846 -0.252656 0.102378
0.072378 0.492584 0.540578
0.426346 -0.264600 0.942599
0.460413 0.176947 0.638677
-0.148836 0.473418 0.145832
-0.082882 0.487648 0.409103
-0.234847 -0.448318 0.204877
-0.452663 -0.174550 0.018099
-0.186529 -0.456911 0.828843
0.494088 0.041412 0.591750
0.094694 0.510610 0.077747
0.040638 0.502873 0.829256
0.058656 0.490206 0.372166
0.229020 -0.449904 0.028649
-0.490311 -0.106893 0.926906
0.450553 0.260126 0.712803
-0.399963 -0.309932 0.478291
0.475608 -0.098211 0.811858
-0.473381 0.155178 0.289178
-0.373594 0.297246 0.399323
-0.481696 -0.126723 0.562586
0.488239 -0.029957 0.458184
-0.492266 -0.084515 0.206824
-0.408979 0.264304 0.163214
0.230600 -0.444772 0.787580
-0.230368 -0.436324 0.477943
0.246747 -0.438058 0.834691
0.118846 0.474875 0.725423
-0.309463 -0.387973 0.531507
-0.341455 -0.368767 0.954042
0.078557 -0.498229 0.909431
-0.396523 -0.283959 0.654443
0.055166 0.497801 0.418939
0.422132 0.255660 0.982317
-0.510175 -0.072285 0.809384
0.232941 -0.455850 0.460860
0.500870 0.027080 0.358600
0.126614 -0.481507 0.255824
-0.490007 0.036771 0.820735
0.498178 0.079352 0.454286
0.273101 -0.418513 0.610978
0.470897 0.127429 0.292735
-0.167684 -0.467618 0.194622
-0.151719 -0.482274 0.319105
-0.422565 0.275297 0.357036
-0.497827 0.093727 0.384568
0.245959 0.420188 0.851272
-0.147197 -0.473991 0.665715
0.471624 0.159499 0.492950
-0.002316 0.512130 0.632935
-0.491931 0.060946 0.364380
-0.338085 0.385705 0.488847
-0.281169 -0.420016 0.840338
0.307358 -0.403019 0.463612
0.479924 -0.141303 0.822185
-0.262020 -0.427167 0.369816
-0.474056 0.148012 0.869005
0.474680 0.138398 0.294185
0.052944 0.509576 0.806137
0.481204 0.108001 0.129312
-0.442064 -0.208819 0.469941
-0.425274 0.237549 0.699734
-0.038160 0.500434 0.332990
-0.497379 0.023779 0.380804
0.458216 0.148629 0.860044
0.345280 0.351174 0.254850
-0.065542 -0.477226 0.994568
0.466521 0.181753 0.051869
-0.478602 0.140363 0.187010
0.421167 -0.257486 0.075937
0.506731 -0.050075 0.034528
-0.439662 -0.282014 0.234481
-0.487955 -0.082009 0.877378
0.442790 -0.225325 0.855744
0.088678 0.484206 0.852275
0.124995 0.487923 0.944827
0.421158 -0.289885 0.637138
0.026767 -0.508858 0.771170
-0.142421 -0.481145 0.192742
-0.028049 0.498661 0.185885
0.511850 0.074357 0.833870
-0.405920 0.282243 0.508624
-0.124526 0.490517 0.785574
-0.391092 0.294217 0.252810
-0.168789 0.456212 0.131651
0.179634 -0.466954 0.245387
0.356935 0.352928 0.625042
0.501200 -0.083787 0.286963
-0.145941 -0.514136 0.210986
0.520612 0.031071 0.619904
-0.310844 -0.374416 0.791868
0.253741 -0.441434 0.043592
-0.317702 -0.370307 0.165596
0.139274 0.472492 0.570979
0.011211 0.494826 0.765803
0.318535 -0.383543 0.840248
-0.368997 -0.366704 0.879409
0.278509 0.406636 0.313875
0.153167 -0.463837 0.291084
0.131116 0.490293 0.156855
0.355279 0.363998 0.969485
-0.497061 0.048017 0.246482
-0.078026 0.486682 0.823048
0.463180 0.151431 0.406126
-0.201138 -0.445257 0.088083
0.346817 -0.387297 0.647676
-0.305619 0.402379 0.915760
-0.380351 -0.338735 0.219828
-0.437619 0.197609 0.600545
-0.498094 0.070364 0.970936
-0.344516 -0.373493 0.091747
-0.387748 0.320399 0.611963
0.328043 -0.389576 0.316772
-0.399350 0.308239 0.031280
-0.479062 0.078295 0.250089
0.491502 0.084022 0.211042
