x y z
-0.434000 0.256325 0.399380
0.135317 -0.491859 0.379499
0.418348 -0.291586 0.789179
-0.042279 0.496004 0.583626
0.456857 0.159458 0.910719
-0.484956 -0.070930 0.539216
-0.274923 0.417643 0.379839
0.085355 -0.496315 0.851052
0.202785 0.450677 0.694150
-0.127650 0.472985 0.448176
0.278046 -0.425773 0.742983
-0.481936 -0.158519 0.021366
-0.484971 0.109940 0.163765
-0.174307 -0.465467 0.170188
-0.513713 0.024149 0.807612
0.003476 -0.497440 0.596428
-0.306766 -0.400078 0.996662
-0.437114 0.261612 0.320649
-0.402609 -0.313639 0.191823
0.288196 0.411959 0.133678
-0.385841 -0.322499 0.113208
0.460798 0.211397 0.189792
-0.307908 0.412008 0.630219
-0.028958 0.489474 0.893225
-0.167904 0.487035 0.627459
-0.281075 -0.413611 0.029287
0.470777 -0.166255 0.027782
-0.329731 0.354976 0.596160
-0.347326 0.358421 0.103100
-0.171390 0.469454 0.750268
0.462679 0.215537 0.310353
0.040234 0.507550 0.900522
-0.006250 0.501414 0.867731
0.041149 0.502078 0.913244
0.042792 0.514443 0.970911
-0.475950 -0.068074 0.368181
0.365902 0.350139 0.027927
0.289085 -0.412678 0.889763
-0.057819 0.484280 0.897061
-0.381200 0.312160 0.439059
-0.212611 0.433574 0.110793
0.359320 -0.340854 0.498972
-0.219279 0.455611 0.524543
0.352763 0.345575 0.384842
0.479173 -0.158673 0.115399
0.116591 0.484067 0.568283
0.441352 -0.245895 0.280505
0.314466 -0.378698 0.613353
-0.487013 0.104736 0.460154
0.471621 -0.080244 0.039728
-0.415072 0.269574 0.158660
0.106804 0.490291 0.428528
0.503400 -0.014926 0.884535
-0.049375 -0.494342 0.101411
0.208747 -0.441635 0.649219
0.194469 0.457031 0.410487
-0.014271 0.504112 0.457172
0.041564 -0.515661 0.711723
0.477839 0.146004 0.756029
-0.173286 -0.474077 0.048983
0.446041 -0.259822 0.570086
-0.070683 -0.488292 0.213137
-0.459409 -0.187404 0.112030
0.179798 -0.446299 0.359190
0.174970 0.481053 0.439621
0.262251 0.417802 0.882335
0.445961 -0.191429 0.232722
-0.293929 0.396775 0.868218
0.042737 0.486174 0.238268
0.412174 0.298465 0.886061
0.274355 -0.410071 0.128057
-0.161646 0.492560 0.549157
0.072620 0.502061 0.413375
-0.261575 0.426112 0.745290
-0.504420 0.040185 0.233329
0.218534 0.444392 0.854444
-0.415182 -0.263987 0.582188
0.283414 0.398501 0.434356
0.038798 0.490615 0.028804
-0.337155 -0.387562 0.293251
0.266536 0.430852 0.973526
0.477975 -0.165208 0.652706
0.101245 0.487188 0.952660
0.483113 -0.019361 0.813910
0.314454 -0.400391 0.036135
-0.486625 0.160063 0.606445
-0.361647 0.341125 0.975506
-0.353169 -0.327967 0.978917
-0.070605 -0.508138 0.851267
-0.344408 0.356453 0.551984
0.283556 0.417661 0.755218
-0.317119 -0.353673 0.264468
-0.020180 -0.512254 0.021404
0.393189 0.311285 0.362370
0.495070 0.101616 0.162650
-0.492837 0.090303 0.039788
0.229074 -0.460598 0.796933
0.467985 -0.184256 0.574953
-0.205825 0.451794 0.385242
-0.098545 -0.504901 0.303435
-0.510248 -0.017041 0.260090
-0.315662 -0.403621 0.737324
0.494694 -0.019503 0.364256
-0.450633 -0.214805 0.734601
0.169961 0.460359 0.909879
-0.456979 -0.215011 0.933673
-0.187440 -0.467685 0.699340
0.132531 0.484418 0.487616
0.476337 -0.162991 0.825917
-0.011950 0.507723 0.819891
0.450853 -0.222739 0.330456
0.435521 0.228747 0.831994
0.476355 -0.165317 0.697192
0.367285 -0.325581 0.968622
-0.267937 -0.432973 0.465835
-0.182347 -0.460329 0.405126
0.372212 0.345468 0.199501
-0.430334 0.253869 0.972826
-0.481263 0.113305 0.684934
-0.493994 0.155029 0.533414
-0.070500 0.501932 0.871545
0.187559 0.452497 0.555865
-0.132297 -0.491483 0.710444
-0.457119 -0.186293 0.907868
0.095175 -0.488318 0.268538
0.278619 0.408259 0.002921
-0.453922 0.168940 0.969090
0.509218 -0.048278 0.239525
-0.485272 -0.098972 0.286565
0.445588 -0.207062 0.432353
-0.489210 -0.117459 0.949322
-0.515521 0.018885 0.529901
0.477584 0.135486 0.535003
-0.448167 0.219993 0.630436
-0.485121 -0.083962 0.832552
0.440645 0.241314 0.027763
0.373663 0.337231 0.122721
-0.482277 0.012663 0.610953
-0.471000 -0.193606 0.162095
0.399479 0.322895 0.175794
0.047451 -0.506195 0.659593
-0.095508 0.500547 0.752516
0.496572 -0.076840 0.993354
0.442777 -0.238593 0.640360
-0.097515 -0.485745 0.852879
0.423891 0.292579 0.031696
0.010886 0.498962 0.909795
0.085351 -0.496169 0.447106
-0.491470 -0.038958 0.906561
0.481426 0.143688 0.089822
-0.030174 -0.496025 0.044636
0.303852 -0.381124 0.209527
0.347735 0.344685 0.608560
0.395953 0.311934 0.803152
-0.012427 0.497420 0.301823
-0.175952 -0.466019 0.594930
-0.406339 -0.289707 0.633949
-0.413994 0.293289 0.191620
0.443239 0.227195 0.690151
0.187108 -0.456385 0.366419
-0.297055 -0.394891 0.005651
0.277821 0.413762 0.727561
0.481019 0.132967 0.886580
-0.479251 -0.161658 0.720510
0.373723 0.338367 0.582292
-0.126759 0.486277 0.738409
-0.495555 -0.005890 0.148525
-0.282926 0.405923 0.985295
0.019302 0.490823 0.159511
0.000115 0.494695 0.056561
0.328053 -0.387348 0.211320
0.303394 0.401455 0.601049
0.440817 -0.243095 0.189269
0.400904 -0.311191 0.205388
-0.373061 0.315199 0.443017
0.112399 0.487697 0.603225
-0.323102 -0.385832 0.611965
-0.301943 0.377320 0.512605
-0.296844 0.395533 0.595745
-0.117860 0.495783 0.311339
0.501025 0.094171 0.161462
0.216790 0.448340 0.905324
-0.433756 -0.239748 0.887416
0.410166 0.292326 0.813166
0.116899 0.491811 0.871416
-0.021684 -0.497004 0.035325
-0.382926 -0.336695 0.483794
-0.466390 -0.140428 0.449758
-0.000544 -0.499512 0.620588
0.480132 0.149475 0.385252
0.110891 -0.498468 0.188756
0.491798 -0.107455 0.900542
-0.412562 -0.307844 0.988650
0.072742 -0.479272 0.150305
-0.394705 -0.330624 0.843187
0.364798 0.350236 0.495341
0.201373 0.436273 0.324432
0.261988 0.409108 0.059983
0.338698 0.376592 0.957962
-0.290296 0.395916 0.959552
