x y z
-0.493934 0.077646 0.633499
0.451334 0.215169 0.065364
-0.172789 -0.469195 0.410890
0.220749 0.448631 0.074651
-0.198417 -0.458945 0.606186
0.194783 0.460499 0.376917
-0.399920 -0.300107 0.336436
-0.497606 -0.048866 0.448265
-0.245790 -0.435416 0.126531
0.314671 -0.388564 0.698947
0.491683 0.090818 0.176493
-0.365693 -0.340982 0.541433
0.350426 -0.356654 0.755678
-0.408151 -0.288812 0.639563
0.475067 0.155921 0.839612
0.274447 0.417946 0.243867
0.485749 -0.118525 0.952435
-0.288589 0.408309 0.814272
0.198015 -0.459119 0.428943
-0.071798 0.494818 0.804909
-0.359463 -0.347543 0.215456
-0.380297 -0.324614 0.752758
0.196198 0.459898 0.266581
0.045631 -0.497913 0.095311
-0.102031 0.489479 0.069119
-0.428708 -0.257312 0.168771
0.210619 0.453475 0.411816
0.372003 0.334086 0.641266
0.398245 -0.302325 0.338025
-0.068387 0.495301 0.693134
-0.038514 0.498515 0.576891
-0.472544 0.163409 0.120744
-0.262154 -0.425764 0.718865
0.302265 -0.398291 0.543723
0.472227 -0.164320 0.444763
-0.499051 0.030787 0.579958
0.031769 -0.498990 0.021184
0.371784 -0.334330 0.719844
-0.453661 -0.210218 0.138077
0.030972 0.499040 0.716634
0.225942 -0.446038 0.527460
0.198590 0.458870 0.985082
0.473887 -0.159470 0.020298
-0.421451 0.269033 0.274074
0.271388 -0.419939 0.236967
0.131263 0.482463 0.252469
0.038575 0.498510 0.923490
0.499954 0.006804 0.031719
0.449900 0.218152 0.873198
-0.034992 -0.498774 0.158830
0.034148 -0.498833 0.087108
-0.302953 0.397768 0.132665
-0.442096 -0.233561 0.956541
0.408666 -0.288084 0.022520
-0.194856 -0.460468 0.502849
0.201877 0.457434 0.405587
-0.492808 -0.084500 0.471950
-0.460476 -0.194837 0.397736
0.433514 0.249130 0.986702
0.450620 0.216661 0.851533
0.483406 -0.127745 0.683247
0.029752 -0.499114 0.844883
0.017957 0.499677 0.902782
-0.272230 -0.419393 0.020214
-0.497180 -0.053025 0.332720
-0.492138 -0.088318 0.014751
0.383600 -0.320703 0.747431
0.426587 0.260813 0.250457
0.471980 0.165029 0.248507
-0.479435 -0.141922 0.589421
0.480561 0.138063 0.510097
-0.442438 0.232914 0.288528
0.072329 0.494741 0.555837
0.273429 0.418613 0.382034
0.229035 -0.444458 0.025583
-0.475205 -0.155499 0.439525
-0.462405 0.190215 0.292277
0.330799 0.374929 0.498513
0.498300 0.041192 0.070234
0.480098 0.139664 0.810356
-0.104346 -0.488991 0.965684
-0.196300 -0.459855 0.608940
0.373838 0.332032 0.770902
0.468825 0.173790 0.413507
-0.098942 -0.490113 0.706597
0.310367 0.392011 0.219509
0.496885 -0.055727 0.872547
0.170243 0.470125 0.715994
-0.436687 -0.243525 0.248198
0.496966 0.054996 0.209257
0.360622 0.346340 0.765678
0.168261 -0.470838 0.553153
-0.478801 -0.144048 0.282642
-0.205756 0.455702 0.307655
-0.408419 0.288434 0.593781
0.350940 0.356147 0.741526
0.104833 0.488887 0.921214
-0.081571 -0.493301 0.055275
0.093856 -0.491112 0.922271
0.312954 0.389948 0.607938
0.495350 -0.068029 0.020871
0.466144 0.180859 0.221022
-0.496399 0.059898 0.550373
0.417074 0.275770 0.378015
-0.003958 0.499984 0.011903
-0.256308 -0.429309 0.575261
-0.113587 0.486927 0.182077
-0.489558 0.101652 0.078289
0.499146 0.029216 0.030007
-0.387643 -0.315806 0.992419
-0.216394 0.450748 0.222998
0.498997 -0.031659 0.604734
0.165123 0.471948 0.539804
-0.498456 0.039266 0.117243
0.445833 0.226346 0.281021
-0.105178 -0.488812 0.416894
-0.479928 -0.140246 0.254279
0.418476 -0.273638 0.900939
0.426538 -0.260893 0.583165
-0.461718 0.191876 0.032278
0.052696 0.497215 0.771626
0.480092 -0.139684 0.059021
0.499961 -0.006207 0.131895
0.357369 0.349696 0.934386
0.004483 -0.499980 0.868453
-0.497342 0.051483 0.733464
-0.472045 0.164844 0.261021
-0.064486 0.495824 0.851148
-0.475585 0.154335 0.417520
0.034448 -0.498812 0.606607
-0.029463 0.499131 0.438969
-0.487500 -0.111104 0.642273
-0.355625 0.351469 0.682890
-0.267425 -0.422473 0.371799
0.130166 -0.482759 0.857616
0.076687 -0.494084 0.519052
0.375420 0.330242 0.148671
0.326383 0.378779 0.817099
0.473894 0.159450 0.509186
0.430908 0.253611 0.339756
0.248419 -0.433922 0.642551
-0.499592 -0.020193 0.122245
0.455890 0.205341 0.504449
-0.392676 -0.309525 0.728440
0.330263 0.375402 0.377708
0.022591 -0.499489 0.238662
-0.080860 0.493418 0.346461
0.261963 -0.425882 0.376298
-0.247133 -0.434655 0.905330
-0.398504 0.301984 0.377459
-0.493633 0.079538 0.365928
0.499953 0.006861 0.781834
-0.299914 0.400064 0.241166
-0.282432 -0.412592 0.790558
0.241274 -0.437935 0.998033
-0.010304 -0.499894 0.700689
0.232517 -0.442646 0.970312
0.308457 -0.393515 0.825895
-0.364043 0.342743 0.598106
0.231969 -0.442934 0.219318
-0.154551 -0.475515 0.404158
0.254667 -0.430284 0.980907
-0.499867 0.011538 0.174670
-0.437699 0.241702 0.789542
-0.495885 0.064018 0.813104
0.330356 0.375320 0.784767
0.329081 -0.376438 0.263341
0.050992 -0.497393 0.666686
0.482749 0.130204 0.340305
0.255354 0.429877 0.633108
0.390329 -0.312480 0.658778
-0.497916 0.045607 0.337896
0.484047 0.125292 0.674010
-0.451944 0.213886 0.090298
-0.089090 0.491999 0.338198
0.220471 -0.448768 0.905386
0.408079 -0.288915 0.611149
-0.493470 0.080546 0.532025
-0.123421 0.484528 0.357413
0.367114 -0.339451 0.497710
-0.047429 0.497745 0.825541
-0.183176 0.465238 0.005767
0.481209 0.135786 0.916525
0.291701 0.406092 0.706401
-0.496575 -0.058422 0.670147
0.411747 -0.283662 0.892060
-0.456297 0.204434 0.267965
0.499849 -0.012292 0.817204
0.285378 0.410560 0.798915
-0.492231 -0.087800 0.936293
0.467373 -0.177658 0.795044
0.450450 0.217014 0.941117
0.292739 -0.405344 0.581035
0.278580 -0.415203 0.334195
0.022084 -0.499512 0.758487
-0.083248 0.493021 0.841521
0.415173 0.278624 0.517281
-0.437180 0.242640 0.483715
0.491072 0.094065 0.042479
-0.366845 0.339742 0.110810
