x y z
0.294368 0.404163 0.693382
-0.344065 -0.362794 0.789909
0.293764 -0.404602 0.438212
-0.332005 0.373862 0.074145
0.384746 -0.319328 0.124507
-0.251768 0.431987 0.464926
-0.319481 -0.384619 0.484577
-0.290948 0.406631 0.985253
0.262299 0.425675 0.346504
-0.307195 -0.394501 0.728743
-0.088990 0.492017 0.979954
-0.155134 0.475325 0.971541
-0.499779 0.014874 0.110373
0.064606 0.495808 0.759453
0.106545 0.488516 0.136614
0.212388 0.452649 0.006092
0.209453 0.454015 0.308562
0.365392 -0.341304 0.573026
-0.442671 0.232471 0.665286
0.498377 0.040254 0.237416
0.344041 0.362816 0.786242
0.404028 0.294552 0.031630
-0.101089 -0.489674 0.311120
-0.499988 0.003520 0.266755
-0.156292 -0.474945 0.052324
0.108039 0.488188 0.169493
0.310373 -0.392006 0.412267
-0.303823 0.397104 0.862648
-0.499794 -0.014342 0.354470
-0.382669 0.321815 0.141182
-0.342863 -0.363930 0.800815
0.473370 0.161000 0.206074
-0.444649 -0.228665 0.095205
0.402690 -0.296379 0.843889
-0.094707 -0.490949 0.158129
-0.267209 -0.422610 0.951521
-0.474641 -0.157214 0.236110
0.466564 0.179773 0.374717
-0.458752 0.198863 0.897512
-0.446366 -0.225294 0.448899
-0.416862 -0.276090 0.229206
0.480763 0.137358 0.944249
-0.408766 0.287942 0.405446
0.042526 -0.498188 0.583302
-0.497695 -0.047952 0.775408
-0.467374 -0.177657 0.485247
0.011817 0.499860 0.453359
0.149464 0.477138 0.506899
0.071918 0.494801 0.328002
-0.077906 -0.493893 0.135502
-0.370645 0.335593 0.108120
-0.311243 -0.391315 0.412127
-0.210519 -0.453522 0.914867
-0.099894 0.489920 0.390566
0.249892 -0.433075 0.633564
0.437932 0.241279 0.225489
0.438565 0.240126 0.583400
0.464067 -0.186123 0.183111
-0.413400 -0.281248 0.279857
0.499256 -0.027261 0.003933
-0.483337 0.128006 0.482626
0.464604 0.184777 0.684464
-0.430468 0.254356 0.899408
-0.458187 0.200161 0.083221
-0.227529 0.445231 0.604287
0.482150 0.132407 0.968903
-0.402205 -0.297037 0.198470
0.496847 -0.056060 0.641084
0.225362 -0.446332 0.661330
0.235911 0.440847 0.380138
0.238378 0.439518 0.988392
0.029659 0.499120 0.018971
0.433641 0.248909 0.388209
-0.489511 0.101878 0.396935
0.479982 -0.140062 0.144670
0.465194 0.183287 0.038518
0.387779 0.315638 0.493023
-0.411049 0.284673 0.829077
-0.389820 0.313113 0.064118
-0.264843 -0.424097 0.156153
-0.490217 -0.098423 0.269516
0.325171 0.379821 0.069050
0.467732 -0.176710 0.307180
-0.475069 -0.155915 0.646749
0.435472 0.245691 0.466186
-0.461388 -0.192669 0.391121
-0.474686 0.157077 0.598806
0.285477 0.410491 0.562252
0.489114 0.103767 0.384732
0.499312 0.026219 0.502027
0.107137 0.488387 0.511742
-0.482297 0.131870 0.287389
0.098804 -0.490141 0.656668
0.440590 -0.236390 0.423979
0.262822 -0.425353 0.589667
-0.078812 0.493750 0.954314
0.200975 -0.457831 0.792470
0.486981 -0.113356 0.572309
0.013828 0.499809 0.534318
-0.499735 -0.016287 0.597231
0.365891 -0.340769 0.267221
-0.219010 0.449482 0.327232
0.476159 -0.152555 0.726733
0.476609 -0.151142 0.840456
-0.465239 -0.183173 0.385037
0.448073 -0.221880 0.340336
0.362650 -0.344216 0.968403
-0.477156 -0.149407 0.986300
-0.499474 0.022929 0.739703
0.432680 -0.250575 0.943084
-0.381963 0.322651 0.484753
0.447502 0.223029 0.873894
0.494294 -0.075324 0.369290
-0.479751 0.140850 0.254479
0.323548 0.381204 0.195560
-0.398513 0.301972 0.551167
0.371808 -0.334304 0.342286
-0.483123 -0.128809 0.349661
-0.414070 0.280260 0.926133
-0.006735 0.499955 0.741550
-0.000957 0.499999 0.958252
-0.495335 -0.068145 0.211420
0.070493 0.495006 0.875344
0.193459 -0.461057 0.863194
-0.499950 -0.007040 0.553349
-0.429231 0.256438 0.436525
0.002193 -0.499995 0.299603
-0.416974 -0.275921 0.494689
0.421108 0.269570 0.873662
0.339638 -0.366942 0.531715
0.240880 -0.438152 0.402104
0.153050 -0.476000 0.873732
-0.030447 -0.499072 0.352170
0.252225 0.431720 0.259684
-0.268050 -0.422077 0.788494
-0.338770 0.367743 0.500919
-0.292578 0.405460 0.342673
0.444322 0.229299 0.085235
-0.464001 -0.186287 0.377867
0.438035 -0.241092 0.584668
0.273818 0.418358 0.033385
-0.188166 -0.463242 0.892097
0.188436 -0.463133 0.647095
0.412949 -0.281909 0.990190
0.419537 0.272009 0.178549
0.273702 -0.418434 0.543924
-0.285691 -0.410342 0.371347
0.276751 0.416424 0.787535
0.098987 -0.490104 0.938724
-0.317630 -0.386149 0.934870
-0.494888 0.071318 0.319395
-0.112993 0.487065 0.907136
0.445640 -0.226726 0.897311
-0.316702 0.386911 0.726935
0.367262 -0.339291 0.896215
0.498131 0.043190 0.562126
-0.499399 -0.024510 0.888479
0.461643 0.192057 0.386268
-0.148587 0.477412 0.386919
-0.017934 -0.499678 0.641926
-0.231054 -0.443412 0.215934
-0.085488 -0.492638 0.511676
0.385763 0.318098 0.546681
0.456811 0.203282 0.997698
-0.035425 0.498743 0.311090
0.054760 -0.496992 0.314787
-0.389108 -0.313999 0.640814
0.041281 -0.498293 0.622525
0.387198 0.316350 0.190796
-0.488467 -0.106770 0.759264
-0.124324 -0.484297 0.520494
-0.271999 0.419544 0.480291
-0.427210 0.259792 0.280710
-0.201036 -0.457804 0.424467
-0.421000 -0.269740 0.493594
-0.499803 0.014041 0.829443
-0.493256 0.081846 0.606797
0.174909 -0.468409 0.762519
-0.496971 0.054956 0.866890
0.165361 0.471864 0.275505
-0.365675 -0.341001 0.250061
0.376293 0.329247 0.765472
-0.491376 0.092462 0.465258
0.424603 0.264030 0.586241
0.346784 -0.360196 0.017304
0.452410 -0.212896 0.035197
-0.347005 0.359983 0.137668
-0.220097 0.448952 0.501891
-0.066480 0.495561 0.898830
0.048147 -0.497676 0.352067
0.310862 -0.391618 0.078115
0.485011 0.121509 0.440201
-0.468696 -0.174138 0.915074
-0.473709 0.159999 0.940760
-0.126807 -0.483653 0.706543
0.127977 -0.483344 0.795542
0.315712 0.387719 0.718263
-0.152698 -0.476113 0.983642
-0.443336 -0.231200 0.701964
-0.309624 0.392598 0.701008
