x y z
-0.444707 -0.228551 0.792376
0.155394 -0.475240 0.752269
0.454835 -0.207667 0.146515
-0.415752 0.277759 0.049890
-0.065849 0.495645 0.274008
-0.356770 0.350308 0.165870
0.183120 0.465260 0.454204
0.383536 0.320780 0.685323
0.493387 -0.081050 0.403698
0.261472 -0.426184 0.723628
0.429319 -0.256291 0.660250
-0.461183 0.193158 0.636154
-0.077053 0.494027 0.282984
0.201973 0.457391 0.314008
-0.168154 -0.470876 0.996662
0.480590 -0.137962 0.071059
0.431579 0.252466 0.866894
0.343669 -0.363169 0.416159
-0.465271 0.183093 0.045510
-0.487518 0.111021 0.645120
-0.277205 0.416122 0.269262
0.227403 -0.445295 0.145001
0.432152 -0.251485 0.077054
0.125498 -0.483994 0.782496
0.053086 -0.497174 0.420986
-0.498444 -0.039410 0.679420
-0.363057 0.343788 0.516732
0.454867 0.207596 0.830077
-0.288555 -0.408333 0.667467
0.348790 0.358254 0.164523
0.453156 0.211305 0.209773
-0.471404 -0.166668 0.014652
0.297425 -0.401919 0.130758
0.080436 0.493488 0.910347
0.395246 0.306236 0.737026
-0.366132 0.340510 0.717580
0.097072 0.490486 0.502697
0.298599 0.401047 0.019363
-0.499457 0.023286 0.450863
-0.314982 -0.388312 0.658860
-0.420095 0.271145 0.980870
0.295323 0.403465 0.026897
-0.394948 0.306620 0.523628
0.495689 0.065516 0.627883
-0.397509 -0.303292 0.211016
0.499925 -0.008664 0.497008
0.481600 -0.134394 0.491492
-0.275229 0.417432 0.957258
0.325527 0.379516 0.839916
-0.393167 0.308901 0.486892
0.316639 -0.386962 0.722509
-0.434672 -0.247104 0.744946
-0.133939 0.481727 0.930964
0.388702 -0.314501 0.532072
-0.495287 -0.068492 0.853951
0.367509 -0.339024 0.195243
0.458565 0.199295 0.874783
0.307306 -0.394415 0.252130
-0.172847 0.469174 0.286124
-0.001686 0.499997 0.211173
0.472562 -0.163357 0.504802
-0.170956 0.469866 0.228949
0.124533 -0.484243 0.073420
0.023772 0.499435 0.040381
0.481593 0.134418 0.365553
0.030905 -0.499044 0.702359
-0.491607 0.091228 0.623313
0.033611 -0.498869 0.267263
0.439798 -0.237861 0.584209
0.116302 0.486286 0.488980
-0.439673 -0.238091 0.713309
-0.212838 0.452438 0.477365
0.489366 -0.102569 0.352324
0.154059 -0.475674 0.839463
0.435665 -0.245348 0.923338
-0.027379 -0.499250 0.509006
0.142785 -0.479179 0.545349
0.345123 0.361788 0.183534
0.038488 0.498516 0.861319
-0.346766 0.360213 0.865847
-0.354277 0.352829 0.239725
0.160044 0.473694 0.470122
0.497196 -0.052879 0.493203
0.127262 -0.483533 0.548037
-0.143543 0.478953 0.404690
0.046991 -0.497787 0.269296
-0.497577 -0.049162 0.790037
-0.007125 -0.499949 0.252127
0.350334 0.356744 0.180920
-0.438129 -0.240922 0.455932
-0.487684 0.110292 0.685154
-0.488022 0.108788 0.982252
-0.429600 -0.255821 0.577490
0.050154 -0.497478 0.035295
-0.479510 -0.141671 0.411031
-0.236459 0.440553 0.213106
0.113369 -0.486978 0.992175
-0.208895 -0.454272 0.393623
-0.497976 0.044945 0.190071
0.083898 0.492911 0.722681
-0.497809 0.046758 0.017932
-0.389191 0.313896 0.961782
-0.315215 0.388123 0.869239
-0.432852 -0.250277 0.992460
0.000829 0.499999 0.597949
-0.458520 -0.199397 0.417606
0.267304 0.422550 0.060691
-0.209957 0.453782 0.091744
-0.056049 -0.496849 0.662012
0.183391 0.465153 0.817179
0.446135 -0.225751 0.565575
-0.453807 -0.209903 0.827388
-0.260533 0.426758 0.241325
0.303165 -0.397607 0.403400
-0.455818 0.205499 0.889996
0.241049 0.438059 0.827108
0.444257 -0.229426 0.054453
0.145357 -0.478405 0.993004
0.354505 -0.352600 0.652471
0.366572 0.340036 0.203775
0.345783 0.361157 0.518538
-0.169278 -0.470473 0.023967
0.263014 0.425234 0.353513
0.422037 0.268113 0.520066
0.051593 -0.497331 0.098398
0.125216 -0.484067 0.807728
-0.497726 0.047632 0.900807
0.483452 -0.127572 0.505838
-0.411500 0.284020 0.747253
0.440838 -0.235929 0.237853
-0.464913 -0.184000 0.644208
0.351061 0.356028 0.918850
0.221421 0.448300 0.612641
0.499433 0.023797 0.053047
-0.042601 0.498182 0.783005
-0.478054 -0.146509 0.533703
-0.229992 -0.443964 0.707563
0.273554 -0.418531 0.621112
-0.483710 0.126588 0.087671
-0.343142 0.363667 0.942830
0.332503 -0.373419 0.299922
-0.288273 -0.408532 0.613504
0.368130 0.338349 0.664805
0.499599 0.020009 0.431716
0.225894 -0.446062 0.208342
0.462872 0.189075 0.740544
0.333921 -0.372152 0.898840
0.196639 -0.459710 0.898229
0.452431 -0.212852 0.790228
0.439378 0.238636 0.666135
0.061165 -0.496245 0.320671
-0.414016 0.280340 0.831637
0.327865 0.377498 0.877479
0.330010 -0.375624 0.702780
-0.096727 -0.490555 0.209941
0.445668 0.226671 0.032018
0.495052 -0.070171 0.118468
0.081821 -0.493260 0.282773
-0.490596 0.096517 0.453502
0.231409 0.443227 0.767725
0.499541 0.021425 0.886197
0.459451 0.197243 0.332815
-0.494444 0.074329 0.981866
-0.276551 0.416557 0.398318
-0.321790 0.382690 0.683816
-0.289337 0.407779 0.072803
-0.156348 -0.474927 0.525231
0.097371 0.490427 0.184513
0.418040 -0.274304 0.230493
0.316494 0.387081 0.287706
-0.009719 -0.499906 0.460041
0.120120 0.485357 0.301923
0.434804 0.246871 0.937656
0.072657 -0.494693 0.452703
-0.106445 -0.488538 0.386563
-0.122444 -0.484776 0.155025
0.475585 -0.154333 0.590407
0.436968 -0.243021 0.650162
-0.032174 0.498964 0.776290
0.191502 -0.461873 0.060260
0.100451 -0.489806 0.944185
-0.293081 0.405097 0.391676
0.012674 0.499839 0.579424
0.499016 -0.031359 0.952997
0.462529 0.189913 0.200071
0.497108 -0.053697 0.687518
0.093209 0.491235 0.510450
-0.469123 -0.172984 0.633444
0.393456 -0.308533 0.742153
0.378611 -0.326579 0.180590
-0.439136 -0.239080 0.175365
0.255186 0.429977 0.888637
0.457307 -0.202163 0.480747
-0.495578 -0.066349 0.820690
0.008521 -0.499927 0.523131
0.441785 -0.234149 0.415428
-0.475763 -0.153784 0.628928
-0.251460 0.432167 0.411141
0.255436 0.429828 0.259165
0.004043 -0.499984 0.268393
