x y z
0.336482 0.369837 0.603939
-0.479537 -0.141578 0.013816
-0.047983 0.497692 0.845392
0.473671 0.160113 0.746596
0.255865 0.429573 0.815020
0.488592 0.106197 0.174803
0.249730 0.433168 0.189289
0.019154 -0.499633 0.639486
0.490807 0.095440 0.879700
-0.227693 0.445147 0.024677
0.382546 -0.321961 0.871178
-0.452537 -0.212628 0.770914
-0.371020 -0.335178 0.673012
-0.256139 -0.429410 0.426682
0.083962 -0.492900 0.072598
-0.292328 0.405641 0.236786
0.445281 0.227430 0.421246
-0.433082 -0.249881 0.805102
-0.387234 -0.316306 0.027470
0.399617 0.300509 0.456976
-0.113129 0.487034 0.994667
-0.497683 0.048084 0.210854
0.109901 -0.487772 0.313495
0.203273 -0.456815 0.628538
0.467799 -0.176534 0.650474
-0.381419 -0.323295 0.464266
0.407297 0.290015 0.705828
-0.271772 -0.419690 0.775118
-0.488851 -0.104999 0.032040
0.361089 0.345854 0.542896
0.427202 -0.259804 0.511490
-0.178215 -0.467161 0.577139
-0.367066 -0.339504 0.505096
0.239130 0.439109 0.673834
0.341990 -0.364751 0.116301
-0.205945 -0.455617 0.132594
0.274601 -0.417845 0.896360
0.048107 -0.497680 0.128331
0.148766 0.477356 0.819271
-0.488993 -0.104334 0.866750
0.495944 0.063556 0.130505
0.128504 -0.483205 0.497650
-0.381632 0.323044 0.086151
0.362098 0.344797 0.832674
-0.443752 0.230399 0.652836
0.267819 0.422224 0.457113
-0.026390 0.499303 0.537642
-0.319111 0.384926 0.357791
0.486762 -0.114291 0.834475
0.198641 0.458848 0.134406
0.489506 0.101900 0.110032
0.002247 0.499995 0.385065
0.378719 -0.326454 0.958971
0.071524 0.494858 0.409413
0.133342 -0.481892 0.072374
0.170546 -0.470015 0.989682
0.251358 -0.432226 0.530100
0.256199 0.429374 0.907983
0.188371 -0.463159 0.467782
-0.498575 0.037718 0.997313
-0.241293 0.437925 0.149663
-0.466908 0.178876 0.283922
0.211217 -0.453197 0.138639
0.478029 -0.146588 0.436447
-0.259734 -0.427245 0.731793
0.467965 -0.176094 0.188195
0.429290 -0.256340 0.884173
-0.379962 -0.325006 0.738165
-0.494319 -0.075159 0.941655
-0.054269 0.497046 0.070765
-0.141451 0.479574 0.421907
-0.449933 0.218084 0.151623
-0.486866 0.113848 0.343280
0.212321 -0.452681 0.469240
-0.485987 -0.117544 0.723696
0.475596 0.154300 0.115407
-0.464161 -0.185889 0.716879
-0.466551 -0.179806 0.165363
0.494885 -0.071334 0.570199
0.290805 0.406734 0.203052
0.496506 0.059005 0.394427
-0.498323 0.040920 0.077009
0.486400 0.115825 0.160990
0.102462 -0.489389 0.883619
-0.377272 -0.328125 0.499315
0.464834 -0.184199 0.940289
-0.031135 0.499030 0.017362
-0.358766 0.348263 0.648721
0.105783 -0.488682 0.208330
0.493850 -0.078180 0.657714
-0.145488 -0.478365 0.856734
-0.455495 -0.206215 0.630619
0.328260 -0.377155 0.701252
-0.377001 0.328436 0.540083
0.464058 0.186146 0.043313
-0.133775 0.481772 0.498598
0.477449 0.148468 0.270595
-0.499186 -0.028515 0.068867
-0.085486 0.492638 0.858560
-0.305295 0.395973 0.100580
0.256864 -0.428977 0.415325
0.115290 -0.486527 0.395123
0.239439 0.438941 0.500707
-0.065740 0.495659 0.205867
-0.493202 0.082172 0.396792
0.043617 -0.498094 0.364505
-0.471858 -0.165379 0.340361
0.458434 0.199596 0.988356
0.497431 -0.050621 0.067197
-0.263398 0.424996 0.080600
0.452016 -0.213733 0.789848
-0.148628 0.477399 0.026101
-0.494257 0.075567 0.309386
0.480128 0.139561 0.751172
0.442032 0.233683 0.263024
-0.464828 0.184215 0.895714
-0.187752 -0.463410 0.363079
0.078733 -0.493762 0.078257
-0.018956 -0.499641 0.596434
-0.010069 -0.499899 0.776232
-0.498812 -0.034451 0.338910
-0.005074 0.499974 0.638689
-0.465671 0.182072 0.593378
0.345007 -0.361898 0.587769
0.277417 0.415980 0.967614
-0.334295 0.371816 0.332401
-0.278447 0.415291 0.338745
0.283940 0.411556 0.052349
-0.091427 0.491570 0.263960
-0.038502 -0.498515 0.186346
0.415626 0.277949 0.650657
0.007881 0.499938 0.027288
-0.482136 -0.132457 0.716717
-0.198044 -0.459106 0.653143
-0.424033 0.264946 0.005427
-0.179719 -0.466584 0.129142
0.487980 -0.108975 0.503044
-0.496718 0.057196 0.110429
0.338179 0.368287 0.637974
0.262375 0.425628 0.788686
0.283759 0.411681 0.430413
0.125500 0.483994 0.955732
0.259042 0.427665 0.269966
-0.031158 0.499028 0.248666
0.243813 -0.436526 0.632410
0.486547 -0.115206 0.692814
-0.090820 -0.491682 0.218765
-0.405941 -0.291911 0.174233
-0.485777 0.118409 0.517741
0.488953 0.104522 0.516092
0.495018 0.070408 0.510275
-0.493681 -0.079238 0.840210
-0.064043 0.495881 0.561042
-0.434748 -0.246971 0.170094
-0.450903 0.216070 0.135763
-0.163885 0.472379 0.107160
0.499500 -0.022356 0.633791
0.003690 0.499986 0.905002
0.010828 0.499883 0.592374
0.498763 -0.035147 0.258027
0.103841 0.489098 0.297575
0.432380 0.251093 0.590536
-0.030917 0.499043 0.268581
0.472799 0.162668 0.152269
0.458569 -0.199285 0.984772
-0.424556 0.264106 0.702328
-0.498240 -0.041921 0.867885
0.020935 -0.499562 0.798139
-0.269516 0.421143 0.867209
0.055608 -0.496898 0.038094
-0.312932 0.389966 0.142116
-0.360734 -0.346224 0.102637
-0.261712 0.426036 0.916357
-0.038287 -0.498532 0.276097
-0.101116 -0.489669 0.788784
0.399841 -0.300211 0.827010
0.217853 -0.450044 0.839116
0.088587 0.492090 0.867828
0.022564 -0.499491 0.494560
-0.484769 0.122472 0.334305
0.324981 -0.379984 0.891578
-0.244758 0.435997 0.551741
0.462193 -0.190729 0.411650
-0.169371 0.470440 0.345969
-0.218417 0.449771 0.844613
-0.164894 -0.472027 0.136140
0.493225 0.082033 0.603123
-0.499492 -0.022539 0.653919
0.239927 0.438674 0.681110
0.438119 -0.240939 0.024515
-0.390427 0.312357 0.005731
0.481124 -0.136088 0.421917
-0.182103 0.465659 0.743927
-0.475316 0.155159 0.389055
-0.348354 -0.358678 0.247374
0.459968 -0.196035 0.692332
-0.127016 -0.483598 0.699887
-0.079384 -0.493658 0.162219
0.041920 0.498240 0.851570
0.472189 0.164430 0.900160
