x y z
-0.461357 -0.381550 -0.802534
-0.864504 0.492268 -0.142231
0.595444 -0.187401 -0.788003
-0.290865 0.675570 0.688477
-0.457491 -0.054349 0.910181
0.201473 0.352011 0.906854
-0.429594 0.508443 0.728310
-0.507911 0.188435 -0.831216
-0.268159 -0.745756 -0.587659
0.549722 0.174265 -0.811436
0.394752 0.447615 0.792790
0.744096 0.225831 -0.628703
-0.791707 -0.525007 -0.349024
-0.343198 0.948054 0.048925
0.046533 -0.375146 -0.940874
-0.273960 0.348679 -0.915919
-0.067305 0.980509 0.292928
0.405467 -0.465382 -0.785963
-0.259847 -0.051360 -0.956492
-0.182003 -0.556672 -0.813121
-0.077694 0.075126 0.999284
-0.324786 0.928909 0.171649
0.015398 0.692443 0.741734
-0.466643 -0.627451 -0.622155
-0.343643 -0.376887 -0.866792
0.129429 0.965729 -0.228111
0.887967 0.253153 0.372142
0.677453 0.471347 0.545625
-0.531902 0.644524 -0.558229
-0.915943 -0.403453 0.123456
0.407622 0.866263 -0.267874
0.101254 0.040835 0.999014
0.004403 0.013362 1.003627
0.979877 -0.265325 0.069075
-0.537173 -0.043240 -0.824088
-0.065083 0.200037 -0.984017
0.832541 0.566224 -0.037210
-0.014849 0.795548 -0.611407
0.802090 0.524460 -0.266552
-0.994088 -0.036202 0.126201
-0.395241 0.559349 -0.742949
-0.417512 -0.412968 -0.824044
0.422781 0.583549 0.683515
-0.037194 0.958870 -0.179679
0.004405 0.983388 -0.117585
0.117237 0.031190 -1.000560
0.764901 -0.482847 0.417696
0.549248 -0.501166 0.679757
0.041493 0.278924 0.957536
0.061200 -0.994174 -0.105166
0.106391 0.262329 -0.962730
-0.742053 -0.290721 -0.591190
-0.602031 0.794916 0.176118
-0.004856 -0.023203 -1.003958
0.991328 -0.202264 -0.101655
-0.149708 0.746255 0.635576
-0.042074 0.458903 -0.882907
-0.204797 0.147124 -0.968260
-0.827418 0.367641 -0.432604
0.539020 -0.698979 0.446786
-0.477567 -0.068438 -0.858414
0.057055 -0.526732 -0.860606
-0.535969 -0.841696 0.107058
-0.005342 0.016375 0.993542
0.365472 -0.788869 0.515583
0.321801 0.516866 0.789869
0.881873 0.427049 0.203451
0.225025 -0.659111 -0.723270
0.078269 0.033562 -0.989824
0.543770 -0.816758 -0.230697
-0.703992 0.190835 -0.662688
-0.579858 0.240832 0.750393
-0.538771 0.277041 -0.798996
-0.054330 -0.786711 -0.614259
0.993119 -0.130926 -0.129042
0.213973 0.017530 -0.971139
0.018897 -0.073140 0.992712
0.074582 -0.284662 0.971079
-0.117212 0.052649 0.985828
0.908334 -0.289331 0.303577
-0.185694 0.905169 0.378716
-0.389731 -0.919569 0.092288
0.905763 -0.198780 0.377385
-0.966602 -0.253701 -0.056431
0.876739 0.371873 0.325762
0.173428 -0.039693 0.991760
-0.108191 0.947416 0.286451
-0.131327 0.010897 -0.979209
0.375883 -0.366632 -0.833712
-0.487418 0.151363 0.864082
0.592830 0.715312 0.356150
-0.593042 0.138059 0.786967
0.737097 -0.691366 -0.099873
0.156663 -0.941922 0.311530
-0.495724 -0.734882 -0.461740
-0.378170 -0.919954 -0.139344
-0.361532 -0.180862 -0.908899
-0.364465 0.493508 0.793145
0.639024 -0.460756 0.613757
-0.314688 0.867366 0.354770
0.676069 -0.726874 0.023026
-0.308345 -0.951101 -0.010885
0.693851 0.172739 0.705854
0.525054 0.130258 0.845933
-0.405840 0.637399 0.686654
0.719738 -0.301931 0.618582
0.604962 0.708231 -0.352761
0.012710 0.017030 1.009909
0.298954 0.702724 -0.631619
-0.033298 1.001882 -0.000454
0.248607 -0.132929 0.959459
-0.123482 -0.822772 -0.566369
-0.128726 0.681262 0.687409
-0.517613 -0.560859 0.670122
-0.305365 -0.031667 0.934635
-0.097267 0.767215 0.632232
0.132756 -0.105938 -0.991029
0.046584 -0.474528 -0.865378
0.240320 0.469343 0.850719
0.366677 -0.505531 -0.800684
0.173455 0.125140 0.953262
0.776140 0.540067 0.321197
0.937361 -0.333170 0.189192
-0.418735 -0.437962 0.776915
-0.402538 0.884185 -0.177168
0.197899 -0.634422 0.761452
0.071860 0.411501 -0.912815
0.805517 -0.590527 0.026507
0.416182 0.832227 0.380234
0.403491 -0.215464 -0.896415
0.911816 -0.330187 0.337335
-0.018679 0.004594 -1.014028
-0.113696 -0.329450 0.932718
0.209937 -0.648982 -0.726058
-0.538215 0.705028 0.461297
-0.283146 -0.826274 -0.520400
-0.016149 0.199703 0.976719
-0.588295 -0.801852 0.232771
0.307957 0.133768 -0.941830
-0.354874 -0.818773 -0.444912
0.357486 -0.480204 -0.797438
0.625158 -0.356294 0.722644
-0.016139 -0.816658 -0.591817
-0.810526 -0.259493 0.514747
-0.943665 -0.305412 -0.141424
0.466388 -0.806251 0.325727
0.877096 -0.380788 0.288324
0.239232 -0.558401 0.804442
0.661974 0.711648 -0.245409
0.161567 -0.549660 0.798705
0.002638 -0.006859 1.018604
0.365736 0.221002 -0.916104
-0.042723 -0.998071 0.124531
-0.015238 0.054380 -0.997489
-0.512604 -0.638204 0.598670
-0.150177 -0.830718 -0.511211
0.173087 0.467155 -0.866859
-0.025009 -0.995486 0.113637
-0.903292 0.260801 0.334460
-0.015004 0.029193 -0.993064
0.004463 -0.192625 -0.966323
0.698120 -0.691969 -0.215749
0.242627 0.656464 -0.697549
0.115621 -0.740940 -0.645593
0.347809 0.618006 -0.712093
0.550894 0.812219 0.174583
0.078266 -0.046680 -0.993099
-0.278641 -0.388380 0.904056
0.167791 -0.002443 0.998822
-0.421507 0.548251 -0.722847
-0.174046 0.413914 -0.914931
0.032488 0.026587 -1.001932
0.418327 -0.559332 -0.718947
0.364236 -0.445153 -0.804243
0.613527 -0.530247 0.583415
0.122706 0.639369 -0.776887
-0.847002 -0.402633 -0.310544
0.550905 -0.822549 -0.109192
0.400125 -0.255258 -0.882909
0.425248 0.650851 0.614068
-0.805334 0.555630 0.196238
0.310249 -0.081440 0.944782
0.582333 -0.014747 -0.820970
0.208560 -0.111067 -0.959155
-0.829913 -0.187133 -0.551316
0.052354 0.026030 -0.984515
-0.321027 0.731631 0.589171
0.019405 0.025433 -1.000920
-0.024088 -0.033863 0.990791
-0.334804 -0.017099 0.930273
-0.024207 0.378212 0.924500
0.191413 0.058258 -0.980597
0.268703 0.124935 0.962780
0.306111 0.790799 -0.519811
-0.120817 0.077838 -0.989583
-0.319495 0.631570 0.701320
-0.921952 -0.071941 -0.363264
-0.398638 -0.149693 -0.899666
0.015096 -0.821881 -0.555396
0.667646 -0.120380 0.720060
