x y z
0.248465 0.099865 -0.960500
-0.054992 -0.194315 -0.991155
-0.400703 -0.591271 0.695538
0.822743 -0.291295 0.471160
0.021009 0.027836 0.995042
0.049487 0.797497 0.596954
-0.249738 0.214585 0.950327
-0.598343 -0.322874 -0.700631
0.961944 -0.018209 0.299558
0.029680 0.867796 0.460798
0.224509 -0.674500 0.711808
0.524026 0.741474 0.432544
-0.595774 0.231801 -0.787884
-0.637621 0.154850 0.756991
0.232038 0.366299 0.910713
0.205775 -0.302561 0.921086
0.011706 -0.027858 -0.995210
0.390666 -0.872163 0.306610
0.539501 0.697260 0.479804
-0.677464 -0.619199 -0.373683
-0.826163 -0.410260 -0.370987
-0.880605 0.436463 -0.117854
0.851067 -0.434415 -0.318001
-0.354027 0.923133 -0.197442
0.137912 -0.016721 0.982492
-0.032547 0.026087 -0.992344
-0.812802 0.532730 0.239983
-0.996561 0.011862 0.011986
0.876814 -0.019881 -0.433529
0.438234 -0.095933 0.893324
0.262777 -0.361596 -0.886500
0.057824 0.002739 0.982406
-0.758059 0.627976 0.230138
0.195930 0.679385 -0.691976
0.463038 -0.868313 0.192271
0.058918 -0.020093 0.990350
0.109836 0.972983 -0.002782
0.089050 0.050515 0.986294
-0.693955 -0.372447 -0.629087
0.017229 0.541264 0.832835
0.393620 0.008439 -0.911193
0.912584 0.366212 -0.138313
0.234593 -0.218494 -0.959149
0.220079 0.951139 0.238641
-0.182777 -0.432585 0.875727
0.125704 0.461924 0.862054
-0.405761 -0.555578 0.713203
-0.015035 -0.239388 -0.970354
-0.493957 -0.007710 0.862064
0.798602 -0.256157 -0.534362
0.244137 0.886939 -0.380507
0.730322 -0.656365 0.204727
0.176797 -0.118668 -0.974441
-0.118266 -0.935764 -0.262634
-0.331248 0.401555 0.839058
0.159954 -0.949911 0.314529
0.476383 -0.461840 -0.766381
0.030207 -0.028402 1.008574
0.012858 -0.017056 1.024969
-0.016026 -0.076133 1.011297
0.336839 0.067936 0.923113
0.798788 0.128720 -0.595554
0.015885 -0.002311 -0.985011
-0.030388 0.258456 -0.972613
-0.055423 0.915678 0.402350
0.994072 0.133044 0.102828
-0.075956 -0.047265 -0.997707
0.074826 -0.152961 -0.961742
0.182856 -0.605265 0.790928
0.147501 -0.890246 -0.485080
-0.175909 0.787972 0.569149
-0.837303 -0.056710 -0.554715
0.609829 -0.234729 -0.728780
0.040771 0.015883 1.014382
-0.978754 0.093224 0.110425
-0.050280 -0.403268 -0.905994
-0.211163 0.700228 0.694910
-0.067269 0.291671 0.950235
0.032287 -0.043338 -1.007577
-0.714134 -0.697269 -0.135195
-0.127853 0.838700 -0.555407
-0.030462 0.099308 -0.985029
0.266680 -0.759007 -0.638919
-0.877624 -0.078285 0.487820
0.698388 0.310732 -0.649663
-0.371595 -0.267097 0.902498
-0.677823 -0.668940 -0.301455
-0.779400 -0.631474 -0.052781
0.118040 -0.794034 -0.573122
-0.054369 0.218938 0.983680
0.134049 0.039908 0.998828
0.222567 -0.971197 0.011828
-0.279901 0.334525 0.904954
0.361096 0.917280 -0.003820
0.366079 -0.367796 0.860945
0.504512 -0.867153 0.186297
0.041991 0.234289 -0.978507
-0.331342 0.683410 -0.639917
-0.205666 0.973306 -0.026030
-0.566042 0.826241 0.028096
0.118392 -0.069562 0.991457
-0.203347 -0.656936 -0.718766
-0.287062 -0.383459 0.887454
-0.823075 -0.473012 -0.330349
-0.009562 0.152454 -1.008529
-0.895419 -0.199808 -0.396882
0.899736 -0.405865 -0.200806
-0.287572 -0.881970 -0.375479
0.190598 0.920732 0.365706
0.797398 0.595439 0.030385
-0.958037 0.013519 -0.254568
-0.381258 -0.333005 -0.866487
-0.886308 0.457044 0.118009
-0.635473 -0.031390 0.756250
-0.280360 -0.251890 -0.925265
0.159302 -0.003824 -0.981793
-0.171876 0.405906 -0.895903
-0.671790 0.585612 -0.480445
-0.870217 -0.309955 0.377063
-0.179627 -0.237666 -0.965444
0.841884 -0.397929 -0.342477
0.119537 -0.005947 -1.002137
0.168369 0.120859 -0.976471
-0.019426 0.030005 -1.004898
0.954623 0.323365 0.043049
-0.906683 0.453614 0.022178
-0.944709 0.211100 0.265361
0.372045 0.536613 -0.771619
0.657045 -0.525453 -0.537848
-0.038656 0.005872 0.994240
0.491929 -0.855094 0.170365
-0.182020 0.827242 -0.487333
0.153246 0.860049 0.471069
0.192251 0.215786 0.955637
-0.022679 -0.941375 0.310134
0.034774 0.229269 -0.959377
-0.354882 0.081019 0.921422
0.502722 -0.609765 -0.611213
0.350618 -0.350334 0.872960
-0.024815 -0.021117 -0.997248
-0.436529 -0.472222 0.743365
0.020920 0.008234 1.003352
-0.573809 -0.806726 0.199309
0.076633 -0.056916 0.996069
-0.040903 0.189659 0.987387
0.445882 0.028590 -0.888316
0.761933 -0.674436 -0.009966
0.749331 -0.065540 0.668039
0.260896 0.712765 0.631112
0.532233 0.012001 0.856434
-0.053707 -0.028135 0.997923
-0.484711 0.138420 -0.863299
-0.193427 -0.016773 0.972734
0.327153 -0.544607 0.774722
-0.575704 -0.785445 -0.143833
0.776126 -0.281526 0.583785
0.976240 0.058265 -0.246210
0.293926 -0.204144 0.933274
-0.839602 -0.332081 0.420727
-0.054776 0.346842 -0.935842
0.174326 -0.094475 0.976740
0.117882 0.885785 0.421034
0.321648 0.788324 0.498660
0.660906 -0.677877 0.311081
0.109000 -0.955226 -0.249213
0.315913 -0.331595 0.883753
0.651002 0.446434 -0.620182
0.136794 0.028110 -0.995502
-0.376999 0.095776 0.912478
-0.098771 -0.068989 -0.986684
0.468210 0.112559 0.882605
0.041427 0.947198 -0.346529
-0.041064 0.097440 1.005635
0.050948 0.666160 0.731086
-0.790243 -0.375691 -0.486566
-0.640608 0.775401 0.153832
-0.356297 0.850265 -0.396067
-0.249050 -0.882267 0.366223
0.588349 0.627101 -0.540002
0.767807 -0.292174 0.593860
0.651746 0.070362 -0.764992
-0.957153 0.102662 0.279356
-0.820298 0.370156 0.427780
0.334922 0.942202 0.139233
0.186587 0.876055 0.436961
0.405858 0.226671 -0.884298
-0.760387 0.459841 -0.444418
-0.105243 -0.399407 0.907552
0.764309 -0.230279 0.601058
-0.518815 0.042457 0.842928
0.029960 0.246411 -0.959295
-0.772655 -0.110062 -0.638506
-0.719004 0.248956 -0.669523
0.069417 0.196716 0.969794
-0.047808 0.823546 0.571558
-0.015769 0.013491 -1.013184
0.536362 -0.461827 -0.703653
-0.004646 0.285645 0.964138
0.795107 -0.427377 0.437403
-0.292239 0.035026 0.949233
