x y z
0.162884 -0.668002 0.726115
-0.231468 -0.923378 0.306260
0.626507 0.589892 -0.509427
0.003646 -0.130327 -0.991464
-0.497649 0.490693 -0.715238
0.741702 -0.176533 0.647081
0.048139 0.489199 -0.870842
-0.852167 0.424695 -0.305687
0.209296 -0.858200 0.468709
0.369187 0.332345 0.867898
0.821027 0.266424 -0.504909
-0.900195 0.424507 0.097176
-0.451744 -0.322569 -0.831791
-0.211982 0.918298 0.334354
-0.385819 -0.447544 0.806752
-0.313974 -0.819521 -0.479380
0.470971 -0.004950 0.882135
0.722324 -0.690362 0.040593
-0.117736 -0.989709 -0.081333
-0.075241 0.033271 0.996610
0.172907 -0.132526 -0.975981
-0.096606 0.751987 -0.652060
-0.162998 0.534352 0.829397
0.330216 -0.177017 -0.927158
-0.911739 -0.206815 -0.354907
0.615259 0.148952 0.774125
-0.816837 0.119034 0.564455
-0.575157 0.141637 0.805688
0.901814 0.359679 -0.239504
0.701812 0.141093 -0.698250
0.492225 0.862824 -0.115108
-0.299049 -0.809565 -0.505148
0.014460 -0.105714 0.994291
0.374511 0.115478 0.920004
-0.275294 -0.215232 -0.936957
-0.481501 0.447518 0.753581
0.148591 -0.388879 0.909227
0.625906 0.057339 0.777788
-0.141306 0.669036 -0.729674
-0.108327 0.295222 -0.949268
0.893099 0.086263 -0.441512
-0.971714 0.228180 -0.060878
-0.212262 -0.721210 0.659395
0.926402 -0.244866 0.286042
-0.356139 -0.123011 -0.926301
0.363710 -0.764468 0.532263
-0.305444 0.313568 0.899099
-0.462285 -0.862558 0.205635
-0.222586 -0.945600 -0.237267
0.448601 0.870984 -0.200359
0.788984 -0.220335 -0.573547
-0.519607 -0.792179 0.320096
-0.404187 0.746052 0.529188
-0.384054 -0.163676 0.908687
0.172482 0.769564 0.614834
0.091034 -0.470277 -0.877811
0.781692 -0.205585 -0.588806
-0.109277 -0.179217 -0.977722
-0.078644 -0.726544 -0.682604
0.138485 0.337577 0.931055
0.913615 -0.399094 0.077666
-0.450170 0.850295 -0.272662
0.789776 -0.224796 0.570719
-0.036804 0.279904 -0.959322
-0.362895 -0.923870 -0.121540
-0.022071 -0.756043 -0.654150
-0.271943 -0.898994 -0.343303
0.472780 -0.359829 -0.804364
-0.306569 0.716900 0.626155
-0.099211 -0.095906 0.990434
-0.862851 0.395342 0.314948
0.394831 0.842799 0.365786
0.286951 0.922768 -0.257214
0.722971 0.574078 -0.384380
-0.981929 -0.100036 -0.160652
-0.773200 -0.047193 0.632403
0.322963 0.525875 -0.786861
-0.019154 -0.098625 -0.994940
-0.230661 -0.757831 -0.610318
0.291250 -0.880736 -0.373466
0.299745 0.755215 0.582927
-0.597676 -0.763503 -0.244637
0.252384 -0.660276 0.707345
0.484302 0.870482 -0.087824
-0.749577 -0.645617 0.145987
0.042300 0.121493 0.991691
0.016625 0.268702 0.963080
-0.277626 0.231859 0.932290
0.084757 -0.291796 -0.952718
-0.716522 0.213285 -0.664158
-0.298347 -0.258950 0.918659
0.497689 -0.458975 0.735967
-0.429531 0.643374 0.633698
-0.012446 0.894396 -0.447103
0.358669 0.084497 0.929633
0.018542 -0.599047 0.800499
-0.269678 0.023324 0.962668
-0.248448 -0.042679 0.967705
-0.767872 -0.328198 0.550145
-0.051026 0.027967 -0.998306
0.564997 -0.586277 0.580566
-0.146731 -0.882804 -0.446236
0.477193 0.767709 0.427680
-0.110404 -0.650785 -0.751192
-0.053897 0.925315 -0.375350
0.996864 -0.001958 -0.079108
-0.184756 -0.110486 -0.976554
-0.606974 -0.678893 -0.413142
0.055123 0.047878 0.997331
-0.342890 -0.877498 -0.335298
0.008464 -0.675098 0.737680
-0.013657 0.083612 -0.996405
-0.189354 0.024707 -0.981598
0.093800 0.046549 0.994502
-0.766934 -0.004662 0.641709
0.477481 -0.739514 -0.474479
-0.592448 -0.805104 -0.028500
-0.627686 0.636753 0.447835
0.624956 0.725050 0.289365
0.032093 -0.908704 -0.416206
0.941269 0.099514 0.322659
-0.044323 -0.117978 -0.992026
0.903998 0.325954 -0.276662
-0.298207 -0.023508 -0.954212
0.201442 0.869832 0.450349
0.392674 -0.048213 0.918413
-0.178657 -0.537745 0.823961
0.845504 -0.533573 0.020543
0.268168 0.950741 -0.155488
-0.932425 -0.028193 -0.360262
0.858743 -0.016360 -0.512145
-0.800480 -0.244670 -0.547145
0.071481 0.120603 -0.990124
0.125323 -0.072333 0.989476
0.934358 0.299610 -0.192897
-0.225196 -0.974297 0.005590
0.485627 0.863142 -0.138389
-0.091232 -0.336079 0.937405
0.126402 -0.134349 -0.982839
-0.182667 0.259491 -0.948313
-0.168693 0.126636 -0.977500
0.952175 0.203891 -0.227575
0.073878 0.154944 -0.985157
-0.281968 0.297784 -0.912041
0.252809 -0.105795 -0.961715
-0.109471 0.400131 -0.909896
0.839500 0.204673 0.503338
-0.079227 -0.701267 -0.708482
-0.138614 -0.452502 -0.880924
0.197350 0.965102 0.172139
-0.702111 0.674895 -0.227059
-0.228585 -0.057275 0.971838
-0.499700 -0.849507 0.169227
0.197634 -0.834415 0.514482
0.627500 -0.665633 0.403952
0.673891 -0.655777 -0.340336
0.101835 -0.066290 -0.992590
-0.037792 -0.202500 0.978553
0.283809 -0.900639 0.329092
-0.296500 -0.111373 -0.948517
0.781852 0.616403 0.093571
-0.128974 0.226137 -0.965519
0.930185 -0.219907 -0.293933
-0.092164 -0.979748 0.177762
-0.168924 0.675316 0.717923
-0.880396 0.464167 -0.097220
-0.062248 0.477007 -0.876693
-0.586713 0.286594 0.757385
0.630185 0.148847 -0.762044
-0.647447 0.411345 -0.641567
0.204320 0.328505 0.922138
0.421635 0.005477 -0.906749
0.782485 -0.591078 -0.195815
-0.348173 -0.022643 0.937157
-0.156197 0.304291 0.939686
-0.564166 -0.695799 -0.444500
-0.239291 -0.476564 0.845947
0.025766 0.833100 -0.552521
-0.630009 -0.323318 0.706084
-0.339963 0.385463 0.857813
-0.113147 0.298865 0.947564
0.168802 -0.310880 0.935339
0.836333 0.419611 0.352809
0.853944 -0.513989 0.081208
0.571303 -0.235612 0.786193
0.360715 0.136722 -0.922601
-0.152031 -0.728656 0.667793
0.122085 -0.065945 -0.990326
0.040823 0.594476 0.803076
0.305096 -0.399196 -0.864615
-0.241753 -0.905283 0.349312
-0.765293 -0.639167 -0.076108
-0.447985 -0.082205 0.890254
0.620683 0.031860 -0.783414
-0.215244 0.944547 -0.247992
0.813485 0.022205 0.581161
0.581506 -0.195675 0.789660
0.474252 0.184761 -0.860784
0.373705 -0.509334 -0.775193
0.211052 0.029055 -0.977043
