x y z
-0.267132 0.957919 -0.190248
0.240122 -0.945532 -0.028085
0.223176 0.373775 -0.905110
-0.503791 0.663558 -0.546226
0.548557 -0.464257 -0.691108
0.048443 0.078594 0.998768
-0.130966 -0.037931 0.992577
0.676147 -0.695454 -0.272696
0.257399 -0.209648 -0.949335
0.896188 0.276387 0.329539
-0.869947 0.474208 -0.107713
-0.431763 0.547168 0.711871
0.940590 0.035588 -0.340485
-0.402370 0.289389 -0.870249
-0.091373 -0.099247 0.972387
0.274916 -0.699828 0.638609
-0.062921 1.002495 -0.096062
0.117875 0.101939 0.985680
-0.453017 -0.042268 -0.879836
0.591063 -0.215338 0.806994
0.669683 -0.781665 -0.036187
-0.048733 0.104671 -0.989482
-0.018359 -0.021079 -0.995451
0.825795 -0.534894 0.239540
0.022290 0.729355 0.654548
-0.220089 -0.870884 -0.441384
-0.402797 0.294914 -0.855469
0.136116 -0.213739 0.993262
-0.208476 -0.067087 0.975883
0.147350 0.854647 -0.494960
0.670108 -0.064518 -0.736211
-0.761119 0.670244 0.078723
0.429927 -0.262545 0.891638
0.519213 0.620548 -0.625677
0.312596 0.456380 0.844713
-0.324271 0.033501 0.955068
-0.659176 0.323753 -0.694781
0.496589 0.437463 0.747675
0.502725 -0.612451 -0.587905
0.165344 0.984431 0.026780
0.797776 0.513550 -0.322354
-0.010068 0.024212 0.998145
0.109334 -0.008112 0.992808
-0.275035 -0.522703 -0.796086
-0.689190 -0.311633 0.673040
0.251283 -0.236380 0.948703
-0.980335 0.152127 -0.108234
0.092875 0.065905 0.993283
0.750588 0.293460 0.592586
-0.263580 -0.788661 0.541147
-0.863152 -0.247485 0.469711
-0.941426 -0.270400 0.136494
-0.085735 0.363014 0.934671
-0.580883 0.785303 -0.170219
-0.743152 -0.038040 -0.672339
0.198623 0.113692 0.976922
-0.658021 -0.223922 0.701760
0.121780 0.739793 0.673949
0.723072 -0.044830 -0.682576
-0.088739 -0.219748 0.975354
0.113502 0.024835 0.981577
-0.267639 0.962389 0.179882
0.786448 -0.595572 -0.218502
-0.876840 -0.313182 -0.369359
-0.039615 -0.011901 -0.996537
-0.365779 0.596319 -0.698819
-0.213223 0.457698 0.877938
0.747444 -0.254631 0.611517
0.015166 -0.019714 0.998195
-0.168721 0.304194 0.947640
-0.505780 0.197769 0.834173
-0.468499 0.386963 -0.784053
0.005240 0.289458 0.957931
0.695030 0.390494 -0.598389
-0.095194 0.366805 0.926630
-0.369289 -0.863707 0.358588
-0.180366 0.125309 -0.987282
-0.199583 -0.114965 -0.974579
-0.301566 -0.681667 -0.648395
0.068632 0.271729 -0.957497
-0.086739 -0.827633 -0.534586
0.548861 -0.458511 0.710999
0.150816 -0.013795 0.990618
-0.895355 -0.305441 0.299304
0.052091 -0.015243 -1.006153
0.094238 -0.210779 0.976998
0.366228 -0.400374 -0.850054
-0.011120 -0.167342 0.995998
-0.247823 -0.031620 0.971605
0.000337 -0.866848 0.498590
-0.233867 0.887910 0.365120
-0.012489 -0.167105 0.969141
0.260010 -0.891576 -0.367994
-0.061712 -0.294521 0.946875
0.453190 0.412562 -0.773825
-0.776399 -0.395519 -0.508040
-0.553178 0.141446 -0.811023
0.647777 -0.751048 -0.081258
-0.714066 0.600881 -0.399778
0.168642 -0.035705 0.981212
0.958851 0.183888 0.140116
0.063734 -0.694236 0.734379
0.517847 -0.235495 0.832770
-0.388040 -0.215465 -0.875915
0.284119 -0.396803 -0.902201
0.731875 -0.659018 -0.182652
-0.022262 1.003348 -0.137592
-0.181120 -0.267688 0.958218
0.152669 0.140771 -0.975776
0.895028 -0.328867 -0.294605
-0.022279 0.105838 -0.990382
0.252269 0.530339 0.788439
-0.347727 -0.077809 0.937405
0.680794 0.509253 0.534904
-0.677449 0.722417 0.083085
0.175478 0.565217 0.798722
0.405915 -0.725170 -0.586964
0.053405 -0.264290 0.961737
-0.650373 0.779722 -0.001218
0.842835 -0.510594 -0.154753
-0.409835 0.118395 -0.906728
0.326276 0.105247 -0.951722
0.230883 -0.727642 0.642179
-0.437308 -0.833011 0.393835
0.498992 -0.392569 -0.788668
-0.696095 0.301327 0.663163
0.839608 0.511405 -0.087527
-0.513971 0.868671 0.055044
-0.362574 0.918273 0.261492
-0.060721 0.266937 0.943381
-0.059579 -0.355821 0.925996
0.073449 -0.602093 -0.820526
-0.783599 -0.509925 0.384141
-0.372220 0.263780 0.883793
0.043947 0.904126 0.386058
-0.065712 -0.996766 -0.119600
-0.662541 0.713980 -0.254640
0.316490 0.465157 0.815626
-0.449425 0.848735 0.264944
-0.053367 0.029707 -0.982636
0.117749 0.110854 -0.982628
0.003923 -0.032071 1.010696
0.216977 0.193552 0.970459
0.210752 -0.385878 -0.893956
-0.076457 -0.834374 0.512443
-0.544643 -0.824567 0.054238
-0.106172 -0.194114 0.981054
0.402824 0.345052 0.834463
0.129143 -0.013381 -0.981247
0.972943 -0.239007 -0.088014
0.957663 -0.301373 0.091572
-0.289262 -0.292271 -0.912613
0.825499 0.240068 -0.534779
0.304521 -0.756770 -0.599747
-0.990137 -0.029041 0.167432
0.207940 0.005405 0.967783
0.015665 -0.043587 1.006677
0.136632 -0.071353 -0.984225
-0.379022 -0.894590 0.296407
-0.939591 0.363804 -0.128742
0.615842 -0.756931 -0.256240
0.066563 0.971508 -0.257589
0.633858 -0.607457 -0.463768
-0.089425 -0.113779 -0.997022
-0.156865 -0.082185 -0.995882
-0.023845 -0.047217 1.002529
0.055559 0.508055 -0.847021
-0.878744 0.055525 -0.480487
0.485972 -0.564724 0.670435
0.040028 0.617037 0.770758
-0.075758 0.869000 0.493091
-0.716905 -0.306088 0.630480
0.292557 0.785914 -0.557429
-0.444769 0.563376 0.701543
-0.078668 -0.714387 -0.680239
0.099240 0.197029 -0.979920
0.849646 0.370553 0.391040
-0.686244 0.145537 0.696631
0.550065 -0.540077 0.646553
0.011694 -0.036155 -1.003952
-0.869847 0.363455 -0.352062
0.059246 -0.974163 -0.224273
-0.597963 0.764737 -0.248165
-0.813168 -0.070612 0.605252
0.950213 0.264767 -0.079886
-0.954964 -0.338854 0.068324
-0.528678 -0.289868 0.806461
-0.144991 -0.737547 0.655888
0.353441 -0.941658 0.118361
-0.279629 -0.450591 -0.857378
-0.644586 0.612041 0.452488
0.738427 0.247273 -0.634751
-0.209347 -0.956252 0.188408
-0.121790 -0.378512 -0.904388
0.451704 -0.295794 -0.845858
-0.140298 1.000029 -0.012675
0.873772 0.282660 0.386252
0.186586 -0.106719 0.991249
-0.194784 0.919369 0.361264
-0.516151 -0.744754 0.425131
