x y z
0.164125 0.037404 -0.979136
0.596933 0.731440 0.321796
0.437693 0.489940 -0.725764
-0.016890 0.020012 -0.995267
0.083623 0.346580 -0.933085
-0.510285 0.856321 -0.072522
0.558282 0.030280 0.820178
-0.150328 -0.970915 0.134938
-0.408184 0.337902 -0.834688
-0.407607 -0.912499 0.200621
-0.824159 -0.216826 0.537550
-0.752867 0.656350 0.010647
-0.618244 0.788903 0.095344
0.274903 -0.845803 0.422703
0.861411 -0.456880 0.102710
0.757500 -0.092221 -0.640320
0.120748 -0.244551 -0.957750
-0.904466 0.242843 0.353156
-0.759997 0.368918 0.521166
0.378088 -0.283147 0.889684
-0.045465 0.598753 0.809037
0.125404 0.456006 0.873534
-0.518190 0.137359 0.851098
0.086400 -1.008644 0.037941
0.382453 0.252462 0.887079
0.763088 0.233358 -0.623031
-0.502193 -0.242269 0.818055
-0.418679 -0.811882 0.396552
0.257455 -0.048385 -0.972392
-0.287182 0.966020 0.076431
0.540834 -0.728490 -0.435829
0.197328 -0.304010 0.932460
-0.262268 0.204664 0.968351
-0.218353 -0.313708 0.905763
-0.040825 -0.293828 0.951498
0.847765 0.036431 -0.531697
0.557785 0.361620 -0.743831
-0.322119 0.779259 -0.546778
0.486083 -0.708473 -0.527030
-0.075610 -0.325145 0.945253
-0.195681 0.813154 0.523594
0.009401 0.997436 0.008438
0.945766 -0.084541 -0.306736
0.136986 -0.452532 -0.892749
0.148752 -0.531596 0.845608
0.272571 0.527493 -0.779007
0.363329 0.922008 0.135266
0.695370 -0.630216 0.310195
0.045303 -0.055150 0.982240
-0.240099 -0.354707 -0.892722
-0.774330 0.219906 -0.586432
-0.568055 -0.552796 0.615081
-0.834412 0.351325 -0.412388
0.121955 -0.978768 0.043915
0.484954 -0.414100 -0.749863
-0.437730 -0.882506 -0.163102
0.955117 0.288975 -0.131022
-0.492855 0.243110 0.834291
0.242346 -0.801823 0.559472
0.758442 0.608600 -0.268967
-0.834232 0.463948 -0.217111
-0.167966 -0.362112 -0.922866
-0.171607 -0.106121 0.976687
0.032802 -0.018230 0.995227
-0.824261 0.014789 -0.582218
-0.013792 -0.046042 -0.977552
0.752735 0.053603 0.634776
-0.929818 -0.316445 0.002013
-0.657514 0.192088 0.699691
0.080064 -0.047171 -1.005384
-0.782489 -0.103544 0.603750
-0.527265 -0.824121 -0.188303
0.003150 0.059324 0.992939
0.734048 0.532325 0.466098
-0.909615 -0.315991 0.297240
-0.397308 -0.289386 0.873538
-0.350005 0.262590 0.907623
0.068049 -0.070213 0.990565
0.170873 0.577492 -0.782110
0.021479 0.078790 1.000738
0.209617 0.342469 0.904516
0.329101 0.025092 0.949156
0.696967 -0.687857 -0.193617
-0.467320 0.677434 -0.561727
-0.018835 -0.011451 -0.995213
-0.019296 0.019818 -0.997613
0.356089 -0.927231 -0.152639
-0.590812 0.426507 -0.672462
0.680420 0.741818 0.126096
-0.126887 0.673400 0.721219
-0.017793 -0.381025 -0.917582
-0.952709 -0.262833 0.187692
-0.111940 0.185950 0.961720
-0.242266 0.454556 0.875033
-0.468264 -0.267041 -0.863152
0.347891 -0.038714 0.922376
0.041451 -0.751593 -0.668732
0.577715 0.437953 -0.687091
0.707091 -0.662535 0.300235
-0.396293 0.011100 -0.921837
0.142588 0.105471 -0.987533
-0.348011 -0.862580 -0.334713
0.472588 -0.600589 -0.655568
0.241859 -0.977185 0.016291
-0.165617 -0.624586 -0.763242
-0.507299 -0.062749 -0.869918
0.622483 0.012551 0.783544
-0.256187 -0.368295 -0.884514
0.777528 -0.486701 0.394985
0.154914 0.216696 -0.972722
-0.506055 0.153818 -0.871984
-0.959585 0.128243 0.205069
-0.902093 0.413465 0.199778
-0.011628 0.058929 1.005599
-0.985967 0.007278 0.174040
0.649267 -0.288503 -0.707116
-0.904098 0.356478 0.203500
-0.160586 0.914646 0.321318
0.654929 0.633228 -0.395935
-0.708976 -0.294794 0.631591
-0.691245 0.078660 0.715682
-0.218172 0.910577 -0.382325
0.673437 0.182658 0.737441
-0.337444 0.865098 0.358069
-0.537952 -0.803576 0.317361
-0.130699 0.234661 -0.973508
0.210573 0.113914 0.962796
0.733683 -0.568880 -0.368790
-0.351195 -0.564014 -0.765691
0.380867 -0.025684 -0.932122
0.048080 0.240172 0.979324
0.798617 0.086600 0.606301
-0.715163 0.687173 -0.098492
0.007069 -0.100267 0.991421
-0.026684 0.069956 -1.000635
-0.673907 -0.722470 -0.023541
-0.690280 0.195709 0.692334
-0.197615 0.173557 -0.974728
0.085327 0.854699 0.509217
-0.500562 -0.101824 -0.847583
0.670900 -0.046544 -0.741699
-0.417181 0.429235 -0.807539
0.489027 -0.865024 0.097071
-0.015226 0.044237 1.013877
-0.503109 -0.118081 -0.845152
-0.040635 -0.000481 1.016797
-0.655844 0.498280 -0.583151
-0.351303 -0.886153 -0.333632
-0.226043 -0.818789 -0.506978
0.679834 -0.150896 -0.715866
-0.147834 0.799542 0.592667
-0.096031 0.005329 -0.996612
-0.628398 -0.322975 -0.705852
-0.139943 -0.197925 0.971462
0.507706 -0.132099 -0.847098
-0.425725 -0.904433 0.016524
0.026452 0.012792 -1.009417
0.133568 -0.098342 0.999756
-0.330850 -0.837135 0.480954
0.007954 -0.002758 -0.998605
0.322275 0.237811 0.942169
0.099913 -0.608263 -0.786776
-0.888322 0.349113 -0.277921
-0.818963 -0.237613 -0.526738
0.432074 -0.082197 0.901670
-0.692590 0.710019 0.008620
0.409088 0.801846 0.416839
0.180902 0.077377 0.992683
-0.120737 -0.423346 0.899365
0.108081 0.784916 -0.617783
0.709598 0.159448 -0.679858
-0.887543 -0.405126 0.284243
0.009626 -0.044856 -0.998171
0.760812 0.265408 0.615084
-0.937866 0.218200 -0.221360
0.675720 0.013127 -0.719879
0.381828 0.249262 -0.873900
-0.069978 -0.074293 1.011190
0.421207 0.212945 -0.876713
0.186903 -0.935435 -0.312885
0.871700 -0.253239 0.445283
-0.177766 -0.486261 0.866822
0.110150 0.282522 -0.945854
-0.102090 -0.261841 0.954468
0.408777 0.879213 -0.155864
0.149828 0.893856 -0.436624
-0.179146 0.641552 0.756616
-0.804958 0.439975 -0.430273
-0.422501 0.847667 0.333799
-0.969385 -0.171910 0.078435
-0.496379 -0.400506 -0.748688
-0.756752 -0.593467 0.312919
0.476010 0.884660 -0.092391
0.351041 -0.878122 0.296263
-0.332983 0.427750 -0.868553
-0.995806 -0.150910 0.088275
-0.115687 -0.356464 0.927748
0.668445 0.381609 -0.605708
-0.190068 0.176571 -0.944166
-0.984872 0.034156 0.166594
