x y z
-0.515990 0.465317 -0.719190
0.031656 -0.775576 -0.630460
0.520272 0.660729 0.541068
-0.305102 -0.410207 0.859444
0.021230 0.020167 -0.999571
0.426368 0.213942 0.878885
0.870669 0.278588 0.405369
0.837157 -0.455941 0.302135
0.188241 0.266633 -0.945236
-0.137480 -0.731227 -0.668137
0.118939 0.738895 0.663241
0.197485 -0.461850 0.864693
-0.472185 0.308542 0.825738
-0.028131 0.127447 -0.991446
0.794723 0.330209 -0.509290
0.276109 0.038144 0.960369
-0.356469 -0.326840 -0.875275
0.117178 0.370181 -0.921540
0.356993 0.932587 0.053277
-0.285682 -0.691752 0.663223
-0.357217 0.558990 0.748282
0.135104 0.281460 0.950014
0.752278 -0.275817 0.598333
0.467462 0.717721 -0.516097
-0.567388 -0.261977 0.780665
0.327987 -0.930375 0.163790
0.109099 -0.161302 0.980856
-0.097275 0.284218 0.953812
0.391336 -0.918259 -0.060463
0.702049 -0.682982 0.201652
-0.454949 0.854729 -0.249920
0.433373 -0.455183 0.777815
0.208122 -0.962483 0.174104
0.145312 -0.341410 -0.928614
0.509934 -0.301854 0.805513
-0.438490 0.656607 0.613672
-0.613891 0.656405 0.438486
0.233596 0.151708 -0.960426
-0.957908 -0.232336 -0.168616
0.120435 0.854355 -0.505543
-0.573632 -0.137968 -0.807410
-0.098415 -0.574730 -0.812404
0.407047 -0.465358 0.785974
0.826422 0.002523 0.563046
-0.036885 0.490648 0.870577
-0.120878 -0.675530 -0.727357
0.162650 0.149555 0.975284
-0.455685 0.865011 -0.210018
0.892054 -0.424774 -0.154294
0.058079 0.235217 0.970206
0.053671 0.178020 -0.982562
-0.673451 0.689091 -0.267612
-0.796495 -0.299806 0.525083
-0.091820 -0.898748 -0.428744
-0.205908 0.242055 -0.948162
0.278283 -0.255999 0.925755
0.586249 -0.597246 -0.547366
0.446803 0.824247 0.347828
-0.243504 -0.060981 -0.967981
0.310645 -0.112321 -0.943866
0.180744 -0.377432 0.908227
0.530773 0.714047 -0.456526
-0.393864 0.429851 0.812465
-0.598428 0.132154 0.790202
0.421444 0.886505 0.191032
-0.837143 0.009277 0.546905
-0.940147 0.254491 -0.226625
-0.756225 -0.621891 0.203410
-0.249740 -0.265326 -0.931253
0.395953 0.471786 0.787807
0.234627 0.963466 0.129165
-0.637178 -0.765041 0.093363
0.078720 -0.753580 0.652626
-0.273904 -0.088510 0.957676
-0.070806 -0.891699 0.447057
-0.297852 -0.090466 -0.950316
-0.304415 0.721096 0.622376
0.422484 0.883937 -0.200406
-0.439962 -0.660049 -0.608908
0.061846 0.942638 0.328039
-0.065164 -0.982415 -0.174968
0.194477 -0.537297 0.820664
-0.187445 -0.295889 -0.936650
0.563009 0.086470 -0.821915
0.154069 0.985384 0.072672
0.100399 -0.054525 0.993452
0.534731 0.844808 -0.019018
-0.166184 0.979097 -0.117267
0.934802 0.342319 -0.094673
0.469925 0.324772 0.820788
0.438244 0.151904 -0.885927
-0.270902 0.067738 -0.960221
-0.134581 -0.537010 -0.832771
0.831377 0.413842 -0.370872
0.483226 0.254504 0.837687
0.939655 -0.031842 -0.340638
-0.413163 0.385989 0.824809
0.068459 0.295881 0.952769
0.813545 -0.398512 0.423477
-0.417699 -0.688486 -0.592887
-0.664763 0.628472 -0.403872
-0.388509 0.277432 -0.878688
0.148179 -0.601999 -0.784628
-0.123379 -0.985099 0.119821
0.390643 0.787456 -0.476772
-0.266934 0.514259 -0.815036
0.078375 0.989529 -0.121202
0.573020 -0.733283 0.365984
-0.232399 -0.646036 -0.727068
0.069639 -0.105227 0.992007
-0.027538 -0.016075 -0.999491
-0.046268 -0.481698 0.875115
0.815315 0.365317 -0.449228
-0.994775 -0.069557 -0.074730
-0.190851 -0.143344 -0.971096
-0.466628 0.216070 0.857655
-0.754029 0.654274 0.058015
-0.879551 -0.105929 0.463863
0.569889 -0.732187 0.373000
-0.200724 -0.230911 -0.952045
-0.436509 -0.173535 -0.882805
-0.860018 0.390522 -0.328422
0.568335 0.552069 -0.610094
0.186508 -0.977654 -0.096993
0.885677 -0.449284 0.117135
-0.035925 -0.412977 -0.910033
-0.195067 0.703657 -0.683239
0.003534 -0.084132 0.996448
-0.319728 0.365313 0.874254
-0.853892 -0.181732 -0.487690
-0.421202 0.850462 0.315124
0.084849 0.319258 -0.943862
-0.510663 -0.656998 -0.554596
-0.686955 -0.205795 0.696952
-0.464604 -0.740648 0.485370
0.880823 0.109247 0.460669
0.926199 -0.359386 0.114008
0.671648 0.487065 0.558262
-0.262778 0.174773 0.948895
-0.190108 0.981173 -0.034041
-0.061317 0.380748 0.922644
-0.326005 0.666346 -0.670600
-0.568599 0.818695 0.080204
0.370590 -0.271741 -0.888155
-0.771212 -0.179710 0.610686
-0.568043 0.195163 0.799524
-0.926648 -0.375882 -0.006083
0.906111 -0.325537 0.270165
-0.738913 0.569337 -0.360364
0.812649 0.152760 0.562375
0.575808 -0.174453 -0.798756
0.341517 -0.239756 -0.908781
0.080101 -0.943224 0.322353
-0.619091 0.536678 -0.573326
-0.047501 0.068744 0.996503
0.174233 0.977349 -0.120133
-0.222594 0.486051 -0.845107
-0.339115 0.588310 -0.734093
0.234396 -0.447287 -0.863130
0.034238 0.865194 -0.500267
0.651283 0.569045 0.502014
-0.048956 0.449834 -0.891769
0.116472 -0.361928 -0.924901
-0.322339 0.295153 0.899434
0.681412 0.730078 0.051618
-0.794336 0.605041 -0.054373
-0.563894 -0.519704 0.641818
0.024424 -0.111310 -0.993486
-0.399592 0.817712 0.414335
-0.619789 0.372528 0.690713
0.396949 0.915728 -0.062236
-0.212615 0.969466 0.122188
-0.871112 0.244624 -0.425820
0.758846 -0.405167 0.509895
-0.023437 0.006894 0.999702
0.871352 -0.201872 0.447207
0.964503 -0.251128 0.081661
-0.300938 -0.130987 0.944605
-0.032177 0.967987 -0.248928
-0.006290 0.006313 0.999960
0.229740 -0.430026 0.873096
-0.124243 0.781879 -0.610925
-0.750854 0.408990 0.518599
0.962632 0.233791 -0.136681
-0.427450 0.307045 0.850300
0.501395 0.733319 -0.459180
0.945290 -0.282266 -0.163564
-0.016191 -0.146043 0.989146
-0.576737 -0.150453 0.802956
-0.455141 -0.670107 0.586347
-0.396225 0.316468 0.861890
-0.444637 -0.883880 -0.145100
0.638365 -0.769089 0.031496
0.996261 0.044401 -0.074116
-0.632951 0.742038 0.220801
0.859996 0.074925 0.504770
-0.418178 0.311491 0.853288
-0.670195 -0.540548 0.508573
-0.268596 -0.258115 -0.928026
-0.001118 0.001743 0.999998
