x y z
0.638597 0.433416 -0.600130
-0.110389 0.275809 0.957789
-0.684020 0.694973 -0.194053
0.006714 -0.370665 0.942120
-0.843644 -0.402469 0.343683
-0.230529 0.938643 0.256025
-0.009780 0.022718 1.002688
-0.016815 0.089166 -1.007418
0.740000 -0.134965 -0.672543
0.458004 0.602105 0.663419
0.607917 -0.498767 -0.622337
0.126861 -0.054851 -0.998851
0.370352 -0.136571 0.909146
0.348694 -0.328408 -0.869866
-0.975621 -0.167273 0.152847
0.775102 -0.598974 -0.166552
0.750352 0.597780 -0.267400
0.039267 -0.094929 -0.999842
-0.746349 -0.627009 -0.183135
0.219552 0.507886 -0.839607
0.549252 -0.797021 -0.115965
-0.112823 0.989497 -0.169375
-0.122425 0.800374 0.548899
-1.005626 -0.035101 0.057097
-0.570387 0.280593 0.762041
-0.053105 0.657766 -0.757862
-0.427661 0.297244 -0.861782
0.067727 0.324853 0.938857
-0.285019 -0.817207 -0.534385
-0.031171 -0.302793 -0.946380
0.045047 -0.000628 -0.998671
-0.737881 0.070293 -0.693761
-0.101776 -0.003903 -1.013692
0.007552 0.901856 0.443388
-0.220750 0.492974 -0.843356
-0.784726 -0.446254 -0.420466
-0.815335 -0.090178 0.586268
-0.042029 0.014661 -1.006762
-0.559768 -0.392803 -0.731736
0.633392 -0.255183 0.730042
-0.219866 -0.174778 0.944068
0.620872 -0.785467 -0.187509
-0.728275 0.339236 0.619702
-0.092557 -0.067853 0.986722
-0.964644 -0.172965 0.210283
-0.540366 -0.727177 0.383243
0.656247 -0.731793 -0.227003
0.500506 0.039772 -0.878091
0.678499 -0.562436 0.486622
-0.248827 0.885626 -0.386254
0.247244 -0.733476 -0.613824
0.603433 0.324875 0.705032
0.197273 -0.584853 0.803536
-0.090035 0.786780 0.593050
-0.997557 0.031963 0.131842
0.806116 0.116032 0.581501
0.499828 0.754276 0.399832
0.437463 0.147203 0.888151
0.223435 -0.301188 0.915917
-0.362371 -0.268599 0.885909
0.921890 -0.223684 0.331818
-0.732262 0.054455 0.702657
0.702064 -0.589396 0.365128
0.117652 0.213556 -0.933859
-0.179758 -0.446254 0.896288
-0.527309 0.703180 0.456060
0.634120 0.296484 -0.700755
-0.503253 -0.465562 -0.739197
-0.546157 0.752803 -0.366881
0.368730 -0.869234 -0.362381
-0.634615 0.485953 0.610351
0.821190 0.447916 0.377323
-0.970781 0.097619 -0.191012
-0.371913 0.843595 -0.395328
0.704459 0.189068 -0.693136
0.548325 0.836125 -0.110473
-0.508683 -0.699636 -0.492071
0.014658 0.366187 0.932503
-0.252883 0.644071 0.743759
-0.044249 -0.901070 -0.480351
0.464278 -0.870076 -0.219439
-0.174517 -0.931861 -0.346614
0.545142 0.476051 0.703459
0.665269 -0.704930 0.194799
0.421394 0.478301 -0.750458
-0.428603 0.807950 0.353995
0.737348 0.663580 -0.079981
-0.628128 0.099244 0.763089
-0.197983 0.558661 -0.805506
-0.876531 -0.187084 0.413012
-0.508685 -0.836853 -0.262786
0.399977 0.042720 0.916707
0.026816 0.328672 0.944822
-0.743163 0.322871 -0.563319
0.977731 -0.246243 0.071194
0.269868 0.289287 -0.935864
-0.613882 0.453057 0.640060
0.095668 0.846180 -0.538200
-0.598571 -0.256245 0.748767
0.976551 0.200201 -0.031785
0.362855 0.298932 -0.862827
0.334539 -0.057967 -0.937525
0.066793 0.911818 0.367011
-0.014330 -0.024117 0.984044
-0.418017 -0.410306 -0.807167
-0.848172 -0.077379 0.541160
-0.170191 0.363297 -0.905612
0.892527 -0.458804 0.089862
0.598407 0.668026 -0.458305
0.024743 -0.083193 0.994500
-0.198063 0.330206 0.934640
-0.009746 -0.011156 0.984646
-0.831697 -0.064634 -0.556427
0.191949 0.377521 0.884817
-0.609723 -0.571597 -0.558419
-0.040399 -0.098412 0.997838
-0.923882 0.075565 0.312948
-0.113584 0.533519 -0.866192
-0.366699 0.869635 0.251938
-0.131751 0.703425 0.674271
0.142045 -0.838843 0.525750
-0.946254 0.209830 -0.277122
0.796740 0.438797 -0.421691
-0.781717 -0.372552 -0.516405
-0.006885 0.014634 -1.014912
-0.013120 -0.388669 -0.943927
0.458991 0.641798 0.635932
1.002900 0.086515 0.013428
0.312067 0.671001 0.644178
0.425452 0.721916 0.557653
0.005562 -0.114052 -0.989704
-0.599132 -0.675993 0.463455
0.134807 0.653909 -0.746532
-0.870025 0.428422 -0.259922
0.729122 -0.361589 0.594861
0.797101 -0.412182 0.434926
0.370280 0.535266 -0.749318
-0.434758 -0.831591 0.360341
-0.126718 0.065157 0.993194
0.164441 -0.863577 0.462017
0.903792 0.352549 -0.224942
0.442716 -0.570379 -0.717624
-0.441439 0.194839 -0.875680
0.121579 -0.415466 -0.894452
-0.568150 -0.654890 0.472613
0.269141 -0.586783 -0.772757
-0.644068 0.122934 -0.763645
-0.091036 -0.180311 0.974082
-0.215445 0.485180 -0.849398
-0.861309 -0.474303 0.201974
0.649145 -0.761333 -0.121546
-0.558441 -0.535826 -0.652891
-0.723058 -0.162075 0.682354
-0.235743 0.972218 -0.019509
-0.680021 -0.226792 -0.694436
-0.357849 -0.824515 -0.457942
0.899018 -0.400217 -0.202211
0.131166 0.202176 -0.966170
-0.116869 0.424122 -0.890352
0.040221 0.894480 0.424803
0.364063 -0.383941 -0.844935
-0.021259 0.215609 0.966168
-0.564690 0.513727 0.622380
-0.936321 -0.124060 0.330184
-0.883975 0.339676 0.313255
-0.375653 -0.213177 -0.889847
0.979389 0.086763 -0.221379
0.246244 0.693312 -0.656395
-0.316683 0.052366 -0.960557
0.324642 0.303240 0.880238
-0.229014 -0.321452 0.921504
-0.067063 0.215022 0.982383
0.626516 -0.678317 0.394461
-0.173238 0.037260 -0.977416
0.044551 0.321372 0.930494
0.221964 0.983693 -0.011901
0.089726 0.336159 0.925247
0.166925 0.030659 1.000024
0.043723 0.114259 -1.013075
0.512565 -0.692004 -0.542781
0.138215 0.939213 0.338180
-0.804455 0.078038 -0.604818
0.922584 -0.216198 0.331164
0.377115 -0.805317 -0.494667
-0.002651 -0.020752 -1.003366
0.786979 -0.541089 0.297216
-0.171218 -0.522429 0.825395
-0.068962 -0.025999 0.991177
0.685745 0.129045 -0.739611
0.157614 -0.450112 0.875825
-0.046740 -0.144428 -0.989845
-0.225794 -0.923064 -0.315749
-0.290108 0.653250 -0.700630
-0.937020 -0.022722 0.327412
-0.467710 0.326216 0.813565
0.160174 -0.104999 0.957397
-0.137538 0.107716 -0.982525
-0.147750 -0.575201 0.817988
0.276068 -0.193327 -0.914817
-0.429619 -0.606690 0.665509
