x y z
0.133912 0.093287 -0.986593
-0.290179 0.292777 0.911086
-0.283242 -0.692890 0.663082
0.684602 0.509170 -0.521599
0.025431 -0.019135 -0.999493
-0.044082 0.218299 0.974886
0.839095 0.267573 -0.473628
0.376149 0.756280 -0.535305
0.143458 0.205153 -0.968159
-0.129818 -0.050809 -0.990235
-0.680239 0.496431 0.539288
0.013096 -0.024662 0.999610
0.245913 0.116196 -0.962302
0.638544 -0.150855 0.754655
-0.389661 -0.228836 0.892075
-0.947429 0.274008 -0.165222
0.134310 0.381861 -0.914409
-0.210770 -0.957648 -0.196181
0.534127 0.824618 0.186315
0.313210 0.926696 -0.207688
-0.461962 -0.822567 0.331624
0.648391 -0.437458 -0.623072
-0.242548 0.107879 0.964123
0.919975 0.252180 -0.300086
0.042338 0.308376 -0.950322
0.863652 -0.479447 -0.155677
-0.394305 0.646048 -0.653563
-0.955450 -0.000056 -0.295154
-0.764223 0.022377 -0.644563
0.554331 -0.112514 0.824656
-0.636580 0.268617 0.722918
-0.216104 -0.116756 0.969364
-0.115072 0.963444 0.241937
0.767014 0.641597 -0.006548
0.247054 0.730741 -0.636382
-0.367625 0.478699 0.797308
-0.390180 -0.769491 0.505612
0.064602 0.011322 -0.997847
-0.053983 0.184978 -0.981259
0.824280 -0.522477 0.218127
0.795420 0.339372 -0.502130
0.741730 0.663102 -0.100663
0.306357 -0.944654 -0.117365
0.187995 -0.209528 0.959560
0.736031 0.119829 0.666257
0.029423 -0.632101 -0.774327
0.401003 -0.109253 0.909539
0.479553 -0.296808 -0.825793
-0.097612 0.381711 -0.919113
0.732667 0.635693 -0.243092
0.882744 -0.381740 0.273931
0.605122 -0.445695 0.659684
0.564501 -0.220890 -0.795327
0.126029 -0.030274 0.991564
0.389676 0.111170 0.914217
-0.195311 -0.084138 -0.977126
0.516235 0.305140 -0.800245
-0.123002 0.011532 -0.992339
0.103887 0.332564 -0.937341
0.181944 -0.858215 -0.479962
-0.341450 0.861862 -0.374975
-0.429211 -0.877730 0.212999
-0.077609 0.065717 -0.994816
-0.366324 -0.376921 0.850728
-0.779482 -0.040503 -0.625114
-0.398760 -0.028965 0.916598
-0.049037 -0.863808 -0.501429
0.141987 0.154445 -0.977745
-0.975517 -0.195262 -0.101189
0.259336 0.524466 -0.810975
0.830065 -0.165408 0.532571
-0.025908 0.203659 0.978699
-0.029837 0.132505 0.990733
-0.433057 -0.063195 -0.899149
0.280542 0.899359 0.335336
0.783983 -0.510229 0.353605
-0.351787 -0.891663 -0.284926
0.042650 0.077903 -0.996048
0.099895 -0.549315 -0.829623
0.341913 -0.775973 -0.530057
-0.305814 -0.911274 0.275786
-0.001668 0.215727 0.976452
-0.093987 -0.330142 -0.939241
0.177067 0.957496 0.227703
-0.486192 0.873603 -0.020839
-0.066660 0.293398 -0.953663
0.059168 0.691514 0.719936
0.967860 0.225441 0.111455
-0.817047 -0.575590 -0.033603
-0.154565 -0.132203 0.979098
-0.638716 -0.042979 -0.768242
0.213893 0.201218 -0.955908
0.053294 -0.833289 0.550263
-0.031455 -0.059798 0.997715
-0.010560 -0.141541 -0.989876
0.663994 0.406147 0.627819
0.079384 0.813180 -0.576573
0.037789 0.069385 -0.996874
0.014673 -0.032617 -0.999360
-0.063846 -0.634259 0.770480
-0.264194 -0.906437 0.329504
-0.702512 0.702472 -0.114063
0.039805 -0.063500 0.997188
0.643593 -0.289973 -0.708311
0.042866 0.176347 0.983394
-0.218963 0.925518 -0.308984
-0.897472 0.082689 -0.433251
-0.033843 -0.995012 0.093840
-0.091081 -0.049924 -0.994591
0.646558 0.325422 -0.689973
0.163616 -0.509906 -0.844527
0.746097 -0.461455 0.479998
-0.456628 -0.870345 -0.184365
0.036291 -0.069250 -0.996939
0.627224 0.531895 -0.568927
0.297623 0.743379 0.599006
-0.370948 -0.256526 0.892520
0.001866 -0.014232 0.999897
-0.636147 0.715894 -0.287771
-0.350103 -0.024684 0.936386
0.819503 -0.202443 -0.536127
0.040835 -0.619113 0.784240
0.057845 0.439610 0.896324
-0.622731 -0.409331 -0.666824
-0.165767 0.094637 0.981613
-0.224740 0.260917 -0.938837
-0.923951 0.261654 -0.279019
0.162772 0.409783 -0.897543
-0.052003 -0.174148 0.983345
-0.094273 -0.738812 0.667285
-0.360116 0.925288 0.118988
-0.169605 -0.059140 0.983736
-0.899790 0.007765 -0.436254
0.211305 0.262209 -0.941593
0.324879 0.172432 0.929904
-0.166162 0.190990 0.967426
0.204766 0.648048 -0.733557
0.875322 0.412275 -0.252666
0.886820 -0.415456 -0.202351
-0.211769 0.202179 -0.956179
0.620713 -0.781859 0.058407
0.283892 0.786039 0.549133
0.788913 -0.022106 -0.614108
0.594244 0.538750 0.597179
0.003882 -0.823512 -0.567285
0.985497 -0.141512 0.093650
-0.015757 -0.037243 -0.999182
0.178796 0.790112 0.586306
0.200741 0.976916 -0.073057
0.309580 0.802830 0.509533
0.219042 0.381855 0.897890
0.047692 -0.400143 0.915211
0.506168 -0.634111 0.584549
-0.157371 0.361909 0.918834
0.096883 0.034238 0.994707
0.127059 0.218687 0.967487
-0.594506 0.324749 0.735596
-0.643413 0.496969 0.582273
0.186230 -0.888906 0.418526
-0.300768 0.132565 -0.944439
0.836827 0.379780 0.394320
0.548108 -0.587334 -0.595497
-0.421466 0.875586 0.236042
-0.894837 0.325012 0.305996
0.222409 -0.304390 0.926219
0.037239 0.338945 0.940069
0.955326 0.266957 -0.126834
-0.203201 -0.961905 0.182890
0.136843 0.187275 -0.972729
-0.265720 -0.076582 -0.961004
0.264179 0.900296 -0.345944
-0.805209 -0.057116 0.590233
-0.094110 -0.065005 0.993437
-0.749926 -0.635287 0.184449
-0.499757 -0.400674 -0.767921
0.901420 -0.320248 0.291349
-0.029927 -0.677655 -0.734771
-0.208166 0.066999 0.975796
0.516011 -0.506395 0.690867
0.354859 -0.349275 -0.867227
0.035619 0.038090 -0.998639
0.601477 0.666715 -0.440131
0.575394 -0.289824 0.764803
-0.848875 0.332545 -0.410882
0.005266 0.060611 -0.998148
0.536918 -0.727809 0.426630
0.540258 0.807118 -0.238080
-0.080024 -0.054542 0.995300
0.066000 -0.414171 -0.907803
0.446217 -0.483322 0.753187
-0.659181 -0.434214 -0.613954
0.002093 -0.008446 -0.999962
-0.212877 -0.205613 -0.955200
0.382463 0.639723 -0.666690
-0.760585 -0.410825 0.502726
0.071463 0.740392 0.668365
0.583259 -0.228155 0.779586
0.998514 0.035893 -0.041014
-0.192965 0.175028 0.965469
0.877650 0.448031 0.170288
