x y z
-0.791144 0.055875 -0.632048
-0.181612 -0.163305 -0.960085
-0.326466 -0.439513 0.840360
-0.400574 -0.880418 0.254199
0.002538 0.850631 0.517986
0.221190 -0.129932 0.963086
0.298164 0.138937 0.949984
0.702544 0.706122 -0.227779
-0.011204 0.117103 0.993707
0.044636 -0.310639 -0.950143
-0.161975 0.094518 0.974781
0.298403 0.169649 0.919473
0.619131 -0.401086 -0.678699
-0.004289 0.087274 -0.976582
-0.201239 -0.287201 -0.934599
-0.049765 0.846891 0.553656
-0.519429 -0.643041 0.589833
0.954789 0.122509 0.257414
-0.361024 -0.174928 0.916792
-0.634524 -0.622225 0.482961
0.346166 0.841078 0.414314
0.610711 0.605813 -0.498998
-0.451811 -0.083532 -0.903856
-0.886036 0.005836 -0.469108
-0.236402 -0.671019 0.684701
-0.031939 -0.043465 -0.995727
0.071859 -0.015269 -1.002930
-0.515776 -0.187634 -0.815763
-0.891477 -0.398500 -0.238484
0.847539 0.221721 0.478933
0.530399 0.328442 -0.766600
0.018647 0.015327 0.994225
-0.172142 0.963209 -0.152682
0.358547 -0.421230 -0.830185
0.004529 -0.040217 0.992127
-0.619113 0.737724 -0.310632
0.059360 -0.900166 -0.429086
-0.127230 -0.959044 0.320963
0.969245 0.173787 0.133911
-0.022026 -0.453993 -0.910589
0.350267 0.128697 0.938783
0.156023 0.603073 0.766457
-0.233242 -0.057561 -0.976674
0.872101 -0.196889 0.449420
0.013555 -0.027619 0.996791
-0.527409 -0.837784 0.198397
0.289947 -0.414159 -0.865607
0.272367 0.683963 -0.688426
0.007693 0.520868 0.855917
0.338422 -0.653787 0.669687
-0.823596 0.378299 -0.445290
0.743535 -0.453622 0.497134
-0.356934 0.115913 -0.927399
0.566926 0.065851 0.817703
-0.016742 -0.326124 0.936045
0.747252 0.370183 0.523527
0.924149 -0.235288 -0.296839
0.441141 -0.517240 -0.738822
-0.732233 0.475078 0.477586
-0.656743 -0.581565 -0.477105
0.011292 -0.559590 0.827899
-0.796434 0.567181 -0.184971
-0.019389 0.013234 0.998146
0.929915 0.305281 -0.222396
0.735334 0.535723 -0.428734
0.854525 0.316916 -0.390018
-0.264343 -0.813891 -0.527182
-0.260387 0.233626 -0.939197
-0.363008 0.513113 -0.766731
0.460335 -0.195112 0.864254
0.553373 0.567900 -0.606193
0.838058 0.397418 -0.384561
-0.037174 0.998765 0.168546
-0.678044 0.360849 -0.637091
0.887482 -0.195363 0.444230
0.146760 -0.009317 0.992375
0.076861 -0.161562 -0.983659
0.032455 -0.160391 -0.990494
0.474448 -0.594609 -0.639067
0.920018 0.102376 -0.416007
0.104478 0.988488 -0.075375
-0.892060 -0.260157 -0.371035
0.255834 0.956548 0.097966
-0.223203 -0.290007 0.931562
0.715661 -0.223108 -0.651668
-0.671091 -0.587567 0.442177
-0.419447 -0.897578 -0.182225
-0.581912 0.041185 0.804811
-0.314322 0.936025 -0.155500
0.926815 -0.212091 0.302585
-0.385386 -0.467958 -0.777807
-0.348121 0.026172 0.933377
-0.739998 0.660455 -0.050011
0.176859 0.176941 0.966987
-0.389606 -0.461018 -0.814495
0.783637 -0.577604 0.214129
0.939317 0.069326 0.329273
-0.510953 -0.839597 -0.053835
-0.650175 0.028813 -0.755859
-0.534347 0.867536 0.035155
0.280615 -0.185095 0.915619
0.186408 -0.045140 0.967769
0.104596 -0.460750 0.888820
-0.665372 0.024843 0.765745
0.076184 -0.236206 -0.978337
0.424393 -0.248372 0.883164
0.056432 -0.214950 0.975055
-0.499762 0.374284 -0.773633
0.880095 0.458216 0.101059
-0.006783 -0.981046 0.202112
-0.056961 -0.035043 0.996939
0.076196 -0.088551 -1.001489
0.204330 -0.910324 0.340214
-0.026547 0.131803 1.001572
-0.164630 -0.335941 0.919513
0.307109 -0.940060 0.116784
0.216324 0.997198 -0.014625
0.206672 0.121194 0.960797
-0.253982 -0.468910 0.821397
0.349133 0.824220 -0.447424
-0.724606 -0.426889 0.531041
-0.463913 0.610016 -0.628053
-0.010384 -0.105340 -0.979990
-0.538746 -0.412246 -0.725585
0.401016 -0.479917 0.791429
0.296725 -0.285512 0.916129
0.889238 -0.491918 -0.091424
-0.568813 -0.818277 0.172269
0.321114 -0.172298 -0.932458
0.064942 0.819325 -0.546460
0.702604 -0.602232 0.394915
0.448578 0.863709 -0.181774
-0.061339 0.025931 1.009325
0.366083 0.468023 0.812274
-0.328582 -0.790134 0.496868
-0.701888 0.696607 -0.136370
0.389667 0.047293 0.921476
0.377044 0.689797 -0.634671
0.732316 0.208838 -0.674827
0.350887 0.813000 -0.460997
0.357892 -0.556314 -0.749712
-0.439664 -0.272589 -0.858505
0.938648 0.333114 0.005075
-0.509977 -0.006722 -0.864483
0.447770 0.501659 -0.733438
0.553800 0.734170 -0.383483
-0.070712 0.292342 0.944845
-0.691994 0.732935 -0.065067
0.816075 -0.232336 -0.523545
-0.452569 0.426099 0.795810
0.215953 0.149206 0.964980
-0.795537 0.113033 0.607953
-0.982563 -0.051265 -0.046079
-0.043014 0.006582 -0.989525
-0.973899 0.063971 -0.299324
0.322114 -0.434743 -0.861862
-0.216032 -0.724113 0.630099
0.036743 0.853084 0.519213
-0.214776 -0.041270 -0.974851
-0.123997 -0.059602 -0.993091
-0.210984 0.872663 0.438765
-0.035669 0.047164 1.000513
-0.302563 -0.791694 -0.525451
-0.088318 0.759433 0.616606
-0.917141 0.221641 0.345993
0.822677 -0.195593 0.574871
0.236471 0.825249 -0.525965
-0.074137 -0.406807 -0.903816
0.813516 0.560007 -0.149975
-0.049458 -0.026385 0.997363
-0.969419 0.117080 -0.262675
-0.751665 0.603128 0.230334
-0.198538 0.381632 -0.893203
-0.745360 -0.651046 0.112295
-0.822148 -0.567078 -0.063428
-0.434015 0.199321 0.864903
0.080595 0.039750 -0.981618
0.167957 0.173458 0.986314
0.601231 -0.223912 0.761098
-0.260741 0.759499 0.596105
0.871514 -0.160964 0.493625
0.443329 -0.412993 0.783890
0.018807 -0.192434 0.982413
0.434546 0.651538 0.604863
-0.688375 0.133617 0.728272
-0.422227 -0.893960 0.034408
0.371229 -0.940621 -0.044456
0.017622 0.009853 0.989912
0.536449 -0.857122 -0.084788
0.072494 -0.274359 0.949106
-0.109367 -0.339093 -0.944666
-0.258160 0.144790 0.982452
0.128659 0.001713 -1.006805
0.433700 -0.494448 -0.741595
0.001770 -0.175081 -0.975840
0.329469 -0.576650 0.746429
-0.630603 0.098756 -0.785124
-0.484889 -0.264953 -0.864470
-0.046079 0.131002 0.978820
-0.797905 -0.549990 -0.227401
