x y z
0.320369 0.301342 0.898085
0.254364 -0.098189 0.962111
-0.343570 -0.843692 0.412485
-0.343586 -0.450510 0.824008
0.301754 -0.072117 -0.950654
0.238981 -0.677664 0.695457
-0.104478 0.553934 -0.825979
-0.964901 -0.256949 -0.054248
0.585620 0.771806 0.247719
0.594316 0.067959 -0.801355
-0.635135 -0.404173 0.658216
0.217078 -0.381275 0.898614
-0.485585 -0.243092 -0.839711
0.341686 0.074088 -0.936889
-0.712806 -0.584686 -0.387364
-0.015749 -0.007892 -0.999845
0.054518 -0.043165 0.997579
-0.067408 -0.265977 -0.961620
-0.196413 -0.793978 -0.575345
-0.036155 0.998754 0.034408
-0.485843 0.000706 -0.874046
-0.846391 -0.270063 -0.459009
-0.520644 -0.560968 -0.643618
-0.314027 0.237333 -0.919271
-0.534102 0.804423 0.260073
0.825841 0.379973 -0.416662
-0.785300 -0.555583 -0.273188
-0.107597 0.730107 -0.674808
0.782199 0.481531 0.395339
-0.716552 -0.068638 -0.694148
0.673842 -0.508992 0.535597
-0.271887 -0.951043 0.146951
0.999362 0.013035 0.033250
0.371364 -0.927535 0.042040
0.025928 -0.007260 0.999637
-0.983553 -0.129716 0.125691
0.708756 -0.335346 0.620651
-0.574324 0.553516 0.603135
0.214294 -0.124595 0.968790
0.761912 0.245793 -0.599230
0.798089 0.584150 -0.147727
-0.154662 0.768619 0.620729
0.163963 -0.157358 -0.973835
-0.939828 0.136418 -0.313230
0.432907 0.744426 0.508351
0.372724 0.459026 -0.806456
-0.773830 -0.596878 0.211953
-0.059472 -0.995265 0.076876
-0.722914 0.526407 -0.447539
-0.972178 -0.176870 0.153578
0.163796 -0.682763 -0.712043
-0.172312 -0.385095 0.906648
-0.400000 -0.793815 0.458102
0.418098 0.400938 0.815133
-0.185368 -0.959827 0.210645
-0.643858 0.512279 0.568346
-0.130802 -0.983099 0.128089
0.359389 0.294710 -0.885429
-0.016063 0.106603 -0.994172
-0.550265 -0.762653 -0.339955
-0.530643 0.031500 -0.847010
-0.038888 0.348574 -0.936474
-0.014299 -0.026893 -0.999536
0.222171 -0.516490 -0.826969
0.406602 0.619633 0.671364
-0.421295 -0.172376 -0.890392
0.924867 0.367472 0.097907
-0.387273 -0.154672 0.908899
0.401590 0.699442 -0.591191
0.194723 0.741950 -0.641555
0.638243 0.484536 0.598223
0.322083 0.449950 0.832951
-0.071147 -0.076632 -0.994518
0.431334 -0.793045 -0.430152
-0.749581 -0.584876 0.309916
-0.260986 0.344942 0.901610
0.870397 -0.018701 0.491996
-0.467432 0.073967 -0.880929
-0.446345 0.512570 0.733517
0.732725 -0.073054 0.676592
0.328047 -0.132463 -0.935328
0.441118 -0.433197 0.785974
-0.019591 0.004263 0.999799
-0.004264 -0.022778 -0.999731
0.014409 0.040911 0.999059
0.819113 0.199953 0.537654
0.732250 0.447518 -0.513359
-0.286622 -0.285738 0.914441
0.286608 -0.161770 -0.944291
-0.768054 -0.039629 -0.639158
-0.853641 -0.186737 -0.486237
-0.171856 0.478825 0.860925
0.918658 -0.367067 0.146045
-0.641779 0.500065 -0.581425
-0.611868 0.774782 0.159155
-0.726802 -0.013939 0.686705
-0.616014 0.526143 0.586259
0.019610 0.032267 0.999287
0.422735 0.493806 0.759902
0.711439 0.263968 0.651287
-0.005144 -0.017168 0.999839
0.553934 0.259696 -0.791021
0.586170 -0.702995 0.402744
0.360251 -0.012609 0.932770
-0.542699 -0.674821 0.500095
-0.208350 0.077983 0.974941
0.023825 0.124052 0.991990
0.712167 -0.701444 0.028196
-0.243106 -0.920357 0.306338
-0.622417 -0.044943 -0.781394
-0.526425 0.335925 -0.781045
-0.794402 -0.304719 0.525426
0.200527 -0.617437 0.760631
0.308118 0.212836 0.927235
0.803299 -0.529445 -0.272761
0.242152 -0.656709 0.714210
0.288360 -0.847713 -0.445231
-0.065978 0.084681 -0.994221
-0.363303 -0.063605 0.929497
0.025012 -0.690777 -0.722635
-0.125730 0.237458 -0.963227
-0.179764 -0.129713 0.975120
0.533616 0.614192 -0.581396
-0.824967 -0.387220 -0.411692
-0.765430 0.327528 0.553934
-0.089786 -0.749081 -0.656365
-0.010590 0.033962 -0.999367
0.987706 0.030120 0.153395
-0.425456 0.886413 0.182369
-0.528875 0.008362 -0.848658
-0.023312 -0.986125 0.164360
0.338994 -0.817290 0.465962
-0.181819 -0.502637 -0.845161
-0.021841 0.012619 -0.999682
0.545784 0.273586 -0.792004
-0.676582 0.024188 0.735970
0.196387 -0.055484 0.978955
0.346677 -0.512110 0.785849
0.013075 0.326901 0.944968
0.594301 0.762561 0.255554
0.668367 0.056775 -0.741662
-0.906604 0.409834 0.100527
-0.136707 -0.069766 -0.988152
0.064575 -0.894021 -0.443347
0.035241 0.065846 -0.997207
0.174883 -0.428967 -0.886230
-0.121203 0.990322 -0.067622
-0.005532 -0.001233 -0.999984
-0.455807 0.455183 -0.764885
0.433306 0.332255 0.837767
0.040707 0.009591 -0.999125
0.880152 -0.470405 0.063646
-0.676679 -0.599232 0.427815
0.919555 0.378693 -0.104929
-0.985679 0.137381 -0.097792
0.129116 0.184379 -0.974337
-0.651659 0.757829 -0.032181
0.989309 0.032869 0.142085
-0.158996 0.003848 -0.987272
0.695580 -0.701784 -0.153843
0.020887 -0.843165 0.537249
0.729957 0.633524 -0.256535
-0.128236 -0.081339 -0.988402
-0.916814 0.328448 0.227101
-0.165103 0.405202 -0.899195
-0.075695 -0.053538 0.995693
-0.117162 -0.782294 0.611791
-0.040426 0.139828 -0.989350
0.312269 -0.187797 0.931246
-0.706022 -0.123650 -0.697311
0.298113 0.252599 0.920501
0.670165 -0.585210 -0.456517
0.063338 0.434629 -0.898380
0.446556 -0.868424 -0.215470
0.407489 0.687690 -0.600862
0.533188 -0.230297 -0.814048
-0.008098 -0.123990 0.992250
-0.329435 -0.351095 0.876473
0.091071 -0.215940 -0.972150
0.185056 0.018645 -0.982551
-0.930589 0.028841 0.364928
0.056177 -0.034673 -0.997819
0.922932 -0.338422 -0.183483
-0.096594 0.018883 0.995145
-0.336163 -0.170644 0.926215
0.985668 0.152928 0.071221
0.790502 0.433586 0.432563
0.961535 0.206900 0.180673
-0.207608 -0.710696 0.672169
0.462646 0.165048 0.871044
0.331100 0.333584 0.882663
-0.937418 -0.240125 -0.252164
-0.173058 -0.644475 0.744784
-0.779845 0.452476 -0.432558
-0.050473 -0.023121 -0.998458
-0.038899 0.248666 -0.967808
-0.577329 -0.107400 0.809417
0.378716 -0.278741 0.882540
0.349101 -0.536314 0.768437
0.178568 -0.626528 -0.758667
