x y z
-0.970112 0.121888 -0.209825
-0.554904 0.269572 0.787027
0.074351 -0.284907 -0.955667
-0.089138 0.547221 -0.832228
-0.220544 0.563127 0.796397
0.451042 -0.756630 -0.473362
-0.674255 0.646034 -0.357800
0.203423 -0.927133 0.314713
0.625336 0.648320 0.434322
0.138629 0.937319 -0.319710
-0.413135 -0.278941 -0.866898
0.351777 -0.748256 -0.562464
-0.740840 -0.247176 -0.624548
-0.979092 0.167220 0.115826
0.176177 0.274860 -0.945206
-0.408864 0.293305 -0.864177
-0.497338 0.772930 0.393997
0.559035 -0.817409 0.139007
-0.007485 -0.987746 0.155891
0.611116 0.566238 0.553093
-0.218205 0.425370 0.878320
-0.188715 0.444506 -0.875672
0.899438 -0.011286 0.436902
-0.382941 0.810836 -0.442607
-0.299365 0.631006 0.715690
-0.981714 0.082106 -0.171745
-0.730423 0.655327 -0.192427
-0.642619 -0.747624 0.167628
0.423565 0.674164 0.605059
-0.352574 -0.751385 -0.557774
0.003116 -0.980583 -0.196078
-0.010903 0.785637 0.618592
-0.019734 0.945259 0.325723
0.235631 -0.343275 -0.909198
-0.207569 0.970886 -0.119563
-0.956361 0.213173 0.199828
0.709952 0.038659 0.703189
0.171139 -0.603042 0.779135
-0.741886 0.654167 -0.147211
-0.732106 -0.431764 0.526878
0.910145 -0.184869 -0.370755
-0.009359 0.125319 0.992072
-0.156171 0.143900 -0.977192
-0.572554 0.112424 -0.812122
0.214857 -0.967506 0.133302
0.093485 0.767911 0.633698
-0.427641 -0.859511 -0.279935
0.084839 0.100712 -0.991292
0.366315 -0.230318 0.901536
0.120446 0.573853 0.810053
0.324595 -0.240946 -0.914649
-0.908480 0.413988 -0.057252
-0.129967 -0.410067 0.902748
0.774057 0.279572 0.568045
-0.202091 -0.255130 0.945552
-0.868339 0.058311 0.492531
0.638621 0.561186 -0.526529
-0.082692 0.834363 0.544977
-0.026066 0.307383 -0.951229
0.372867 -0.402998 -0.835801
-0.836455 -0.038180 0.546704
-0.229865 0.293134 0.928027
0.001570 0.000866 -0.999998
0.054073 -0.274094 0.960182
0.026093 -0.291216 0.956301
0.183506 0.857732 -0.480230
-0.811647 -0.200483 0.548667
-0.745076 -0.515818 -0.422839
-0.946962 0.254631 0.196026
0.893537 0.408067 -0.187278
0.289685 0.957089 -0.007926
0.074483 0.252126 0.964824
-0.505994 0.854975 -0.113966
-0.297418 -0.920260 0.254292
-0.558496 -0.825728 0.079095
0.188881 -0.553340 -0.811257
-0.995846 0.001630 -0.091039
0.005348 -0.025014 -0.999673
-0.496808 -0.788525 -0.362505
0.261135 -0.216219 -0.940775
-0.416738 0.906959 0.061278
-0.235880 -0.949390 0.207410
0.745512 -0.447240 0.494153
0.007829 0.007007 -0.999945
-0.125238 -0.928011 -0.350872
-0.297653 -0.029803 0.954209
0.511828 -0.007134 0.859058
-0.413695 -0.803604 -0.427875
0.633299 0.507908 -0.583920
0.379300 0.286170 -0.879908
-0.300349 -0.654427 -0.693913
0.040034 0.064265 -0.997130
0.098178 -0.095445 0.990581
-0.193098 -0.973641 -0.121393
-0.602916 -0.136269 0.786081
0.006111 -0.874590 0.484824
0.098694 0.569215 -0.816243
0.034207 -0.176246 -0.983752
0.185889 0.842031 -0.506388
-0.009774 0.035535 -0.999321
-0.531379 -0.836367 -0.134634
0.330970 -0.743636 0.580917
-0.267498 -0.909034 0.319534
0.608348 -0.461400 -0.645773
-0.339314 -0.422018 0.840694
0.840577 -0.541042 -0.026546
0.138662 0.145632 0.979573
0.744583 -0.559169 -0.364589
0.049295 -0.471812 0.880320
0.054135 -0.322066 -0.945168
0.224375 0.005167 -0.974489
-0.018719 0.049863 -0.998581
-0.064157 0.813326 0.578260
0.780547 -0.574216 -0.247025
-0.817187 0.237170 -0.525315
0.168844 -0.178659 -0.969316
0.004067 0.909023 0.416727
-0.024665 -0.252417 -0.967304
0.037258 0.124802 0.991482
0.321004 -0.664249 0.675077
-0.294732 -0.231134 -0.927206
0.201698 -0.528222 -0.824803
-0.681040 0.537202 -0.497593
0.458444 0.888610 -0.014189
0.322482 0.352320 -0.878565
-0.701063 0.158143 -0.695343
0.948655 0.078659 0.306376
-0.844792 -0.227176 -0.484476
-0.209146 0.944097 -0.254829
0.029102 0.034340 -0.998986
-0.013609 -0.007662 0.999878
0.645795 0.504201 0.573350
-0.648977 -0.683928 0.333273
0.253657 -0.743779 -0.618426
-0.836334 -0.085651 0.541488
0.034794 0.004500 0.999384
-0.871934 0.435179 -0.224390
0.064957 -0.328562 -0.942246
-0.410915 0.710710 -0.570999
-0.318581 -0.206831 -0.925055
-0.450962 0.580178 -0.678252
0.608240 0.394915 -0.688540
0.222364 -0.973249 0.057794
-0.066948 -0.142870 0.987475
-0.162593 -0.902529 0.398755
-0.896468 -0.441459 0.038192
-0.170861 0.397477 -0.901564
-0.916009 0.062730 0.396223
0.860515 0.364226 -0.356165
0.797562 0.012422 -0.603109
0.135136 0.053431 0.989385
-0.913877 0.270217 0.303005
-0.417054 -0.696900 0.583435
0.286919 -0.205631 -0.935625
-0.429867 0.882178 -0.192294
0.109215 -0.150436 0.982569
-0.010786 -0.807736 -0.589446
0.085247 0.036290 0.995699
-0.094668 0.316797 0.943757
-0.840929 -0.039953 -0.539669
0.147050 0.009434 -0.989084
0.134476 0.263355 -0.955280
0.158529 0.973036 0.167539
0.434926 -0.880802 0.187155
0.507664 -0.235903 0.828630
0.174168 -0.127691 -0.976402
0.188467 0.233098 -0.954015
0.845232 0.526343 0.092441
-0.336811 0.149625 -0.929608
0.526084 0.848346 0.059533
0.723927 -0.336231 -0.602394
-0.061733 0.019808 -0.997896
0.872728 0.261137 -0.412498
-0.244232 -0.306883 0.919877
0.053355 0.434785 -0.898952
-0.193122 0.019009 -0.980991
-0.102375 0.159677 0.981846
-0.000057 0.017209 0.999852
0.608722 -0.640672 0.467971
-0.633512 -0.288662 -0.717870
0.654015 -0.050186 -0.754815
0.425198 -0.895657 -0.130402
0.019075 0.973670 -0.227161
0.887646 -0.393430 -0.239370
-0.324505 0.807462 -0.492647
0.775029 0.585747 0.237130
-0.947889 -0.132492 0.289747
-0.979324 -0.193241 -0.059850
0.216122 -0.973353 0.076647
-0.216379 0.234178 0.947808
-0.010780 0.003153 0.999937
0.031564 -0.022561 -0.999247
-0.413596 -0.887181 0.204569
0.476321 -0.756689 -0.447817
0.659271 0.261678 0.704902
0.726511 -0.289044 0.623406
-0.885053 0.006409 -0.465445
0.187930 0.411248 -0.891940
-0.182096 0.962437 0.201385
0.537143 -0.170900 0.825997
