x y z
-0.568456 0.189503 -0.790657
0.515188 0.750899 0.429139
-0.300225 0.922004 0.272060
-0.100740 0.406861 -0.919606
0.152818 -0.055866 -0.982156
-0.907084 -0.155391 -0.415410
-0.059838 0.001005 -1.000302
0.229680 0.550265 0.796614
-0.484434 0.172914 -0.857914
-0.816942 0.087511 0.533245
-0.036099 0.060448 -1.005092
-0.716231 0.676638 0.106290
0.205764 -0.308001 0.943404
-0.029910 0.293476 0.972473
-0.274734 0.298773 -0.931393
-0.715653 -0.259274 0.654854
0.313035 -0.578318 0.748598
-0.300180 0.341885 -0.881412
0.207062 -0.018574 1.000210
-0.006445 -0.819966 0.578592
-0.625907 -0.315017 -0.731543
0.959283 0.025478 0.280734
0.987247 0.216926 0.046098
0.888176 0.458325 0.080562
0.144268 -0.830841 0.544705
-0.067762 0.259527 0.969074
-0.830636 -0.413268 -0.340869
0.104188 0.307823 0.967019
-0.479585 -0.342558 0.810606
0.406377 0.794729 0.474040
0.529570 -0.295625 0.790028
-0.495500 0.782204 -0.361045
-0.166153 -0.463802 -0.858570
0.302080 0.932955 -0.125126
0.451341 -0.888231 0.120284
0.346979 0.815253 -0.438296
-0.657856 -0.722842 -0.233500
0.935136 -0.341656 0.039391
-0.804890 -0.215755 -0.565854
-0.620518 -0.602920 -0.491201
-0.056954 0.168787 -0.982444
0.023739 -0.254603 -0.972442
-0.590475 -0.167945 -0.777705
-0.321092 -0.931202 -0.071791
-0.512988 -0.493722 -0.712843
-0.020748 -0.036778 0.995096
-0.774199 -0.061441 -0.635178
-0.053353 0.056559 -0.995004
0.154588 -0.985268 0.115229
0.218074 0.156744 0.950494
-0.129311 -0.118230 -0.983820
-0.501351 0.722367 0.472807
0.051489 -0.037908 0.985136
0.417444 -0.269413 -0.878546
0.031576 0.007496 -0.978884
-0.091845 -0.113957 0.987619
-0.795314 0.613651 0.012564
-0.155648 0.292314 -0.936768
0.034122 0.011256 0.996639
-0.388505 -0.714462 0.590559
-0.215113 0.179392 0.955744
0.383207 0.141761 0.914671
-0.537715 -0.661055 -0.537306
0.988544 0.148601 0.038154
0.212914 0.209420 0.962208
-0.351232 -0.587616 0.714775
-0.841692 -0.234037 -0.482013
-0.733463 -0.207418 0.636167
0.471191 -0.168409 -0.875441
-0.176813 -0.273972 0.923649
0.027541 0.984797 0.120321
-0.309249 -0.173007 0.949344
-0.641043 0.050630 -0.760630
0.499205 0.606076 0.619702
-0.273950 -0.251610 -0.940899
-0.340789 0.034848 0.949505
0.401056 -0.423130 0.806359
0.570319 0.233344 -0.797354
0.004972 0.734475 -0.675548
-0.424444 -0.292128 -0.860283
0.125849 0.045059 -1.016761
-0.041616 -0.006790 -1.007906
-0.499808 0.706929 0.483915
0.814374 0.458679 0.385879
-0.015654 0.927643 -0.298008
-0.025138 -0.460888 0.884143
-0.100253 0.471988 0.881002
-0.126626 -0.312498 0.940281
0.001514 0.138123 1.008199
0.653041 0.631790 0.425569
-0.684202 -0.477541 0.556196
-0.129197 0.406457 0.899799
0.390991 0.151201 -0.882614
-0.052002 0.099800 -1.003144
-0.641816 -0.709853 -0.305935
0.450341 0.299771 0.851710
0.511604 -0.803494 0.309809
-0.413968 -0.727213 -0.565527
0.477207 -0.554072 -0.689833
-0.534242 -0.498638 -0.684443
-0.672232 -0.250274 0.687496
0.120274 -0.837620 -0.516375
-0.055431 0.078861 -0.975979
-0.005059 0.012078 0.996904
-0.018098 -0.974587 0.240264
-0.584724 -0.253972 0.760010
-0.301840 -0.288089 -0.896548
0.592527 -0.601747 0.562158
-0.860841 0.041134 0.499576
0.365749 0.658980 -0.645257
0.999149 -0.048354 0.016293
-0.011705 0.265304 -0.951644
-0.406328 0.325158 -0.844301
0.550847 -0.790547 0.299787
-0.599956 -0.049984 -0.779462
0.035244 0.590478 -0.811406
0.870190 -0.378704 -0.327381
-0.304523 -0.871389 -0.374620
0.155012 -0.613602 0.779050
0.238083 -0.920624 0.225696
0.713380 -0.629543 -0.356193
-0.347628 -0.358795 -0.856711
0.987783 -0.064644 -0.123711
-0.421021 -0.583350 0.673835
-0.149624 -0.465978 0.878923
0.275325 -0.900539 -0.363586
-0.379855 -0.395966 -0.820499
0.258715 -0.948791 -0.116978
0.003243 0.555574 0.831706
-0.146655 -0.645404 0.748971
-0.399761 -0.196302 -0.905042
0.695194 -0.380587 -0.619253
0.450696 -0.372355 -0.806927
0.070250 -0.015762 -1.009049
-0.190301 0.138503 0.975817
0.535473 0.768929 -0.284892
-0.643302 -0.467635 0.600967
0.275226 -0.074111 -0.954535
-0.584292 -0.732067 -0.320953
0.866912 -0.117993 0.477629
-0.006709 0.005642 -1.003715
0.079151 -0.001262 -1.000852
-0.341715 0.110193 -0.931326
0.717806 -0.493562 0.458703
0.557135 -0.412008 -0.705802
0.298865 -0.251445 0.913629
0.333510 -0.356442 0.879723
0.369955 -0.668712 0.634751
0.346907 0.381243 0.854312
-0.567857 0.174269 -0.804956
0.225803 -0.767524 -0.617371
0.015586 0.099205 -0.998813
0.003385 -0.007431 -0.989295
-0.831299 -0.547781 0.021880
0.013262 -0.908548 -0.450249
0.122810 0.177911 -0.976413
-0.954421 -0.290787 -0.007206
-0.037897 -0.041921 0.986442
0.440497 0.534867 0.716099
0.141343 -0.036672 -0.991946
-0.149565 0.013370 0.966607
0.760465 -0.465976 0.446117
0.257032 -0.941511 -0.248916
-0.216549 -0.090377 0.973992
0.267353 -0.813112 -0.498648
-0.282963 -0.203326 0.942124
-0.649879 -0.068235 -0.746627
-0.181632 -0.192757 -0.983611
-0.988700 -0.127367 0.200204
0.329959 0.410393 0.863376
-0.088913 -0.044797 -0.989331
-0.067391 0.838870 0.567430
0.961247 0.192694 -0.184683
-0.021703 0.107561 0.993396
-0.238439 -0.243812 -0.961152
-0.559139 -0.009584 0.819711
0.100510 -0.292928 0.972045
-0.502566 -0.878172 -0.078031
0.003890 -0.425322 -0.914179
0.080852 0.047135 0.997532
-0.036859 0.650917 0.742971
0.034327 0.048703 0.989660
0.111077 0.031411 1.007752
0.590325 0.391281 -0.712379
0.343205 0.016407 -0.932056
0.792177 0.570248 0.225286
0.031260 -0.082829 -0.998304
-0.191535 0.310187 0.934234
0.410431 -0.319195 0.851881
0.407062 -0.545169 -0.737895
0.067417 0.879270 0.479725
0.354562 -0.382108 0.845333
-0.088924 -0.833523 -0.560803
-0.630622 -0.568662 -0.517691
-0.820494 -0.166271 0.568044
-0.647698 0.596856 0.460433
0.477591 0.420295 0.782471
0.218765 -0.433072 -0.879060
-0.012411 0.028969 1.009124
0.267237 -0.536399 -0.814584
