x y z
-0.269329 -0.099401 -0.954199
0.478901 0.778449 0.412578
-0.283488 -0.433993 0.854095
-0.185897 0.037868 -0.965011
-0.804928 0.478975 0.354059
0.167025 0.423700 -0.889838
0.419092 0.627346 -0.639063
-0.803079 -0.454027 0.378521
-0.107018 -0.059750 -0.982635
0.645960 -0.056041 -0.748499
-0.161622 -0.699194 0.722995
0.718464 0.614410 -0.298029
-0.589244 -0.596888 -0.548461
-0.578816 0.585440 0.569557
-0.273626 0.482910 0.827431
0.359225 0.582450 0.736464
0.298534 -0.188224 0.948548
-0.090239 -0.012872 -0.985377
-0.142420 -0.024854 -1.001557
-0.357242 0.155992 -0.939524
-0.289231 -0.303409 0.901959
0.994333 0.066080 -0.176495
0.018933 0.051508 1.000876
0.603031 0.065653 -0.806556
-0.292864 0.532349 0.783727
-0.654155 -0.668877 0.359632
-0.449835 0.083753 0.901829
0.208150 0.256668 0.943795
-0.453991 -0.845024 -0.312355
-0.098345 0.070457 -0.999184
0.598206 0.785536 -0.151870
-0.261839 0.958054 0.120401
0.641148 -0.397520 -0.653964
-0.136251 0.854221 -0.474830
-0.609183 0.793075 -0.051631
0.305039 0.362756 -0.866821
0.791993 0.049680 0.612390
0.792375 0.595071 -0.231993
-0.429519 -0.670139 -0.614822
-0.092086 0.659001 0.755985
0.114157 0.189568 0.963358
-0.089002 0.834197 0.529924
-0.802404 0.153519 -0.576350
0.126516 0.239031 0.966904
0.245864 0.179798 -0.962744
-0.929442 -0.176687 0.271543
0.308886 -0.131066 -0.936832
-0.993659 0.092142 0.063566
0.273028 -0.865838 0.413588
0.444645 -0.488489 -0.774454
-0.134798 -0.949192 0.315893
-0.177148 0.482563 0.845608
0.222986 0.599560 0.766066
0.906637 0.343045 -0.290086
-0.450078 0.083161 0.902092
-0.393857 0.601756 -0.695126
-0.915276 0.114171 -0.339914
-0.109891 -1.000745 -0.102889
0.876231 -0.210170 0.449359
-0.655050 -0.741325 0.055407
0.602709 -0.292598 0.721927
0.400273 -0.093183 -0.920967
0.219358 0.470541 0.869080
0.337887 -0.070295 -0.943841
-0.128772 -0.042135 1.004029
-0.385205 0.261544 -0.909559
-0.164188 -0.043846 -0.997175
0.155775 0.905224 -0.378305
-0.117981 0.376764 0.936597
-0.864440 0.081485 0.505217
0.842694 0.508336 0.170743
-0.940913 0.335647 0.063269
0.227150 0.413881 -0.900937
0.070645 -0.048338 -0.993019
-0.090465 -0.835122 0.533727
0.229100 -0.320233 0.918481
-0.526617 0.434130 -0.710117
0.834211 -0.087322 0.538742
0.232535 0.640977 0.736605
-0.777368 -0.644084 -0.004678
-0.740875 0.183016 -0.676366
-0.702965 -0.354115 0.585415
0.577871 0.622405 -0.534115
-0.566450 0.271428 -0.766851
0.425387 0.294762 0.857434
0.003585 -0.004897 -0.995823
0.253951 -0.208132 0.936578
-0.769815 -0.055267 -0.618460
0.227595 0.330575 0.929034
0.010377 -0.072136 0.994392
-0.301911 -0.107485 -0.946037
0.760151 0.188844 0.605116
-0.061004 -0.796178 0.632738
-0.000437 -0.035402 -1.002522
-0.378543 -0.750886 -0.527388
0.319875 -0.141415 0.927715
0.940631 -0.337060 -0.008787
0.491812 -0.875031 0.096543
0.728904 -0.633991 0.324734
-0.915144 -0.386092 0.217110
0.149899 0.334938 0.904457
-0.524371 -0.790740 0.377284
0.572036 0.684950 0.413804
-0.853509 0.258816 -0.431668
-0.927694 -0.300682 0.204915
0.282825 -0.086103 -0.952450
-0.472278 0.810821 0.247943
-0.859285 0.254620 0.466091
0.290482 0.273023 -0.918539
0.038147 -0.035326 -1.002777
-0.470841 0.563145 0.678642
0.203312 -0.540933 -0.814061
0.002202 -0.458844 0.895057
-0.425288 -0.546581 0.720516
-0.927042 -0.158704 0.316724
-0.025110 0.007393 0.977724
-0.365365 0.805497 -0.483998
0.313255 -0.539909 -0.788561
-0.581493 0.215571 0.778007
-0.032792 -0.082731 0.986286
-0.910210 0.113407 -0.403388
-0.611257 -0.593749 0.489682
0.465699 -0.778869 -0.406276
-0.303408 -0.148654 -0.941705
-0.852644 0.446162 -0.319646
0.373938 0.197986 0.911873
-0.981271 -0.023088 -0.135484
-0.006698 0.006882 -0.986569
0.119035 0.262567 0.954311
-0.572286 0.018336 -0.817755
0.089921 0.993842 0.082462
-0.712512 0.696675 -0.164230
-0.572599 -0.171651 0.790235
-0.237456 0.205723 -0.957491
-0.402278 -0.128337 -0.916181
-0.158373 0.217534 -0.979493
0.462399 0.159197 -0.863459
0.149288 0.669257 -0.739916
-0.200275 -0.193364 0.966488
-0.243380 -0.872250 -0.405950
-0.789434 -0.289556 0.568525
-0.337696 -0.394623 -0.838892
-0.076211 0.922237 0.400885
-0.343078 -0.528039 -0.755307
0.004197 0.010569 1.006902
0.715771 0.667483 -0.169824
0.702633 -0.696278 0.196753
-0.213564 0.080315 0.976184
0.058686 0.048933 -1.014228
-0.399756 -0.713082 0.563648
0.020264 -0.146400 -0.998327
-0.444586 -0.848811 0.264766
0.677867 0.087611 0.710444
-0.131770 0.688160 -0.712301
-0.150466 -0.826385 0.528830
-0.214137 0.966054 -0.165646
-0.089058 0.256462 0.962539
0.473964 0.605417 -0.630341
-0.206686 -0.866510 0.480870
-0.326311 0.401165 0.837272
-0.133304 -0.171786 -0.964099
-0.100407 -0.865279 -0.500573
0.018574 -0.131861 -0.972573
0.460849 0.831663 0.342388
0.319445 0.709631 0.637605
-0.718918 0.331913 0.609511
0.810880 -0.215590 -0.546873
-0.198985 0.803949 0.551896
0.235892 0.173119 -0.948914
0.579575 0.138900 0.829036
0.482565 -0.313983 -0.834988
-0.093751 -0.668450 -0.719372
-0.251164 -0.777671 0.613956
-0.153221 -0.911714 -0.394325
0.806088 0.320966 0.479749
0.436804 0.343624 0.807956
-0.349458 0.062479 0.931406
0.018523 0.093915 0.988694
-0.036094 -0.684618 -0.735664
0.009166 -0.034128 0.998307
0.724093 0.356680 -0.596753
0.442657 0.384795 -0.816137
-0.764126 -0.505718 -0.387308
-0.614406 -0.472449 0.644110
0.444117 -0.691543 -0.567551
-0.987388 0.168047 0.150760
0.283719 0.777857 -0.541461
0.003352 -0.066681 -0.976043
-0.157894 0.608396 0.752557
0.004462 -0.032407 -1.006926
0.086048 0.338115 0.922667
0.146681 -0.638946 0.775389
-0.255063 -0.305970 0.903961
-0.988461 -0.093466 -0.135742
-0.257496 -0.229764 0.960041
0.234290 0.470280 -0.830718
0.181138 0.403979 0.891017
-0.700859 0.100472 0.695372
0.168308 0.030888 -0.981285
0.099997 -0.475900 -0.859563
