x y z
0.677740 -0.632993 -0.415887
-0.002804 0.247289 0.969962
0.022480 0.019679 1.011616
0.145579 -0.641389 -0.729056
-0.051114 0.175428 0.980260
0.559274 0.604620 -0.573421
0.883386 -0.293619 -0.392585
-0.346094 0.907600 -0.254884
-0.084827 -0.764016 -0.631594
-0.297309 -0.104920 -0.940630
-0.250732 0.876277 -0.422496
-0.002264 0.127609 -0.995715
-0.218443 0.150906 0.970094
0.176909 0.895721 -0.420018
-0.263985 -0.298454 0.916584
-0.450392 -0.648943 -0.606390
-0.351840 -0.946656 0.135960
0.094090 -0.228722 -0.982026
-0.562606 0.543914 -0.656198
-0.076712 -0.021118 -0.998751
0.863382 -0.507038 -0.155434
0.618581 -0.702116 -0.353184
-0.197225 -0.151839 0.969886
-0.819455 -0.090495 0.573126
-0.031448 0.101888 0.995718
0.110923 -0.076552 0.988844
-0.022003 -1.006320 -0.077902
0.715827 -0.669216 0.189010
-0.047176 0.688064 0.731695
0.096874 -0.251723 0.979208
-0.016875 0.062602 -0.990192
0.118523 -0.168292 -0.971278
-0.124936 0.922005 -0.318257
0.068783 -0.360644 0.918131
-1.004856 -0.026690 0.019044
-0.823684 0.090150 0.596030
-0.827038 0.489949 -0.236321
0.382493 0.955195 0.003264
0.431635 0.744702 -0.512610
-0.448677 -0.473691 -0.751055
-0.490617 0.873972 -0.079586
0.090572 0.666105 -0.732664
0.052001 0.255306 -0.972944
0.185298 0.936375 -0.254875
0.321187 -0.711960 0.612015
0.785025 0.511400 -0.331201
-0.397272 0.824122 0.379612
-0.329446 0.762330 0.519314
-0.470407 -0.198178 0.856040
0.039872 -0.033250 -1.014844
0.104335 -0.034382 -0.993468
0.120514 -0.421324 -0.880330
0.356873 -0.407702 0.816301
-0.375229 0.497209 0.775610
0.943632 -0.088969 -0.261938
0.530014 -0.290561 0.783253
0.440915 0.103762 -0.901855
0.430755 0.602125 0.668721
-0.991606 0.034264 -0.185363
0.495555 -0.629009 0.610433
0.472408 0.862271 0.174418
-0.026443 -0.706690 0.692623
0.392239 -0.291066 0.887809
0.298663 0.325723 0.904985
0.144193 0.637359 0.747769
0.484038 0.064456 0.873326
0.978088 0.171016 -0.081544
0.618827 0.797269 -0.013412
0.307027 0.890092 -0.299397
-0.338229 0.929248 -0.131958
-0.314441 0.160830 0.942040
0.316130 -0.642076 -0.729145
0.145840 0.083747 0.975122
0.087368 -0.171174 0.987036
0.020424 -0.011536 0.997965
0.090196 -0.249095 0.947028
-0.336223 -0.326668 0.886098
0.217585 -0.807651 0.536640
-1.024207 -0.000953 0.107569
-0.047773 0.291467 -0.958594
-0.034328 -0.045116 0.994536
0.673749 -0.648571 0.334847
-0.394331 -0.238286 -0.901356
0.170770 -0.073612 -0.970356
-0.432737 -0.373608 0.813305
0.591098 -0.803484 -0.143368
-0.932410 0.235209 -0.241106
0.832561 0.529930 0.044864
-0.377800 0.773727 -0.483497
-0.133077 -0.558442 -0.791653
0.925090 -0.134956 -0.350560
-0.100373 -0.078706 -1.013530
-0.922083 -0.392822 -0.043848
0.474471 -0.524826 0.705818
0.181422 -0.022994 -0.970466
0.633430 0.555452 -0.544987
-0.041651 -0.046132 -0.991639
0.921459 0.081357 -0.415157
-0.042570 0.224847 0.967791
0.025282 0.094383 -1.005254
0.520033 0.368433 0.773056
-0.002758 0.977723 0.095343
0.431570 0.343661 0.831925
0.112748 0.357386 -0.917670
0.030394 0.120340 -0.998151
-0.971003 0.113416 -0.148017
0.150641 -0.022423 0.990424
-0.311480 0.342334 0.896849
0.929052 -0.377710 -0.028290
0.022436 -0.091745 -1.010257
0.193678 -0.385249 -0.909760
0.422749 0.235941 0.883641
-0.497644 -0.860526 0.130637
-0.082142 -0.113421 -0.986432
0.057574 0.882454 -0.435715
-0.407832 -0.811579 -0.422222
-0.277848 0.276070 -0.927655
-0.613824 0.060812 0.775576
0.360548 0.354619 -0.856432
-0.735013 -0.175144 0.655024
0.244827 -0.109332 0.948907
0.029544 0.984943 -0.140969
-0.545359 -0.051910 -0.842675
-0.038992 0.012594 1.012445
-0.011073 -0.055705 1.011431
-0.104041 -0.403859 0.897252
-0.268828 -0.931347 -0.207008
0.181414 -0.838126 0.481808
0.691559 -0.626538 -0.362629
-0.610214 -0.342713 -0.684360
0.834008 -0.445921 0.349789
-0.798954 0.437519 -0.414877
0.113075 0.719932 0.688005
0.762750 -0.166460 -0.621209
-0.276201 -0.945127 0.151404
-0.257082 0.928861 -0.263593
0.193846 0.510796 -0.829011
-0.279532 -0.478561 -0.841932
-0.513275 -0.643130 0.550402
-0.441069 -0.837133 0.291499
-0.536189 -0.443539 -0.720596
-0.248798 -0.532827 0.811846
-0.450882 -0.303825 0.842108
-0.226336 -0.583438 0.785802
0.026114 -0.128087 0.995391
1.006801 -0.050734 -0.112820
-0.705606 -0.121015 -0.707048
-0.026935 -0.080590 0.989786
-0.013847 0.134198 0.995701
-0.449508 0.056232 -0.903715
-0.251969 -0.567913 -0.777518
-0.032875 0.434511 0.905130
0.237741 -0.856394 -0.437683
0.315455 0.730122 -0.598972
-0.152661 0.187594 0.962099
0.324973 -0.959235 0.055618
-0.515557 -0.151562 0.837042
0.473130 0.723267 0.510060
-0.516661 0.428309 -0.748378
-0.948388 -0.230794 -0.259525
0.454767 0.739436 0.492983
0.817599 -0.473238 0.327837
0.585886 0.783108 0.140117
-0.253411 -0.109449 -0.953781
-0.000838 0.105478 -0.994250
0.734268 -0.094174 0.678551
-0.369295 -0.066933 -0.938125
0.143739 0.959986 0.226257
-0.472960 0.740283 0.488654
-0.621886 0.530237 -0.553809
-0.186604 -0.623401 0.780695
-0.324313 0.722740 -0.608149
-0.670231 -0.115426 -0.719968
0.256106 0.435097 0.868011
0.531201 0.758737 -0.334379
-0.239918 0.932491 0.265682
-0.878432 -0.413997 -0.205990
0.969754 0.029363 0.232197
-0.147184 0.973045 0.253808
0.419407 -0.456346 -0.782865
-0.022583 0.052675 0.981933
0.637373 0.681937 -0.362015
0.012597 0.408409 0.908033
-0.142373 0.058145 -0.992895
0.067923 0.792035 -0.605059
-0.195567 0.662908 -0.720355
0.908010 -0.239238 0.326987
-0.288855 -0.300253 0.908673
-0.130577 0.020141 0.974328
-0.394084 0.841945 0.330548
-0.805122 0.051959 0.583917
0.470237 -0.628688 0.633629
-0.189507 0.690964 -0.667885
0.158150 0.215595 0.977112
-0.412229 -0.475271 0.783580
-0.200589 0.122350 -0.963853
0.226360 0.108057 0.965664
-0.592523 0.680949 0.418175
0.642428 0.000264 -0.767425
0.149630 0.169415 -0.980599
