x y z
0.679784 -0.677821 0.280094
-0.814588 0.579295 -0.029393
-0.192902 0.142987 -0.970744
-0.343206 -0.743752 0.573622
-0.157616 0.745623 -0.647459
-0.724434 -0.419026 0.547368
-0.865919 -0.370465 -0.336067
0.914100 -0.400812 0.061415
-0.117510 0.965605 -0.231945
-0.307915 0.614789 0.726101
0.453417 -0.793515 0.405891
0.522554 -0.529444 -0.668301
-0.351664 -0.350383 -0.868080
-0.378976 -0.629323 0.678476
0.649605 -0.321350 0.689020
-0.767392 0.118313 -0.630168
-0.922174 -0.380910 0.067104
0.418573 -0.041679 -0.907226
0.208503 -0.801067 0.561086
-0.286851 -0.733151 -0.616609
-0.643219 -0.710425 0.285597
0.362818 0.894146 0.262424
-0.480737 0.156248 -0.862832
0.075302 0.091512 -0.992953
0.613574 -0.639909 -0.462648
0.016522 -0.044360 0.998879
-0.660361 0.435904 -0.611483
0.246420 0.916082 0.316340
0.599225 -0.800577 -0.002299
-0.617856 -0.344473 0.706818
0.590146 0.702809 0.397224
0.433881 0.515281 0.739075
0.503900 0.150088 0.850622
0.859346 0.496472 -0.122639
-0.936530 -0.342166 -0.076378
0.080518 -0.282774 -0.955801
-0.218656 -0.062991 0.973767
0.753821 0.142601 -0.641419
0.096020 -0.814594 -0.572029
-0.197313 -0.149362 -0.968896
0.090403 0.987607 -0.128296
-0.302180 0.104079 -0.947552
0.375270 0.411590 0.830521
-0.562035 -0.095549 0.821576
0.086938 0.024849 0.995904
-0.262514 -0.257556 0.929920
-0.405638 -0.025506 -0.913678
0.854707 0.368482 -0.365645
0.999486 -0.020458 -0.024672
0.730240 0.278374 0.623905
0.018758 0.933399 0.358349
-0.338865 -0.101875 -0.935303
-0.889547 -0.456166 -0.024873
-0.499837 -0.689619 -0.524012
-0.525312 0.372276 -0.765152
-0.778576 0.627496 -0.008255
0.136830 0.122008 -0.983052
0.261601 0.284026 0.922439
0.124633 0.391882 -0.911535
-0.705805 0.113719 -0.699219
-0.174978 -0.543126 0.821217
0.199058 0.975925 -0.089138
-0.077553 0.752798 -0.653667
-0.876654 0.165452 -0.451779
0.446476 -0.829297 0.336044
0.112463 -0.248053 0.962196
-0.188831 0.157680 -0.969268
0.865508 -0.500106 0.028121
-0.009528 0.006265 -0.999935
0.441366 0.754523 0.485686
0.072380 -0.385774 0.919750
-0.443352 -0.242015 0.863057
-0.096963 -0.317697 0.943222
-0.900943 -0.252525 0.352892
0.017752 -0.096749 0.995151
-0.016380 0.421895 -0.906497
-0.070106 0.468362 -0.880751
0.519184 0.842379 -0.144377
0.990848 -0.034457 -0.130512
0.228894 0.487626 -0.842513
-0.195237 0.327669 0.924400
0.446505 0.759181 0.473579
0.466568 0.654249 0.595208
0.796298 -0.002141 0.604901
0.199729 0.009752 -0.979803
0.018953 0.903478 0.428215
-0.940293 0.289147 -0.179562
0.498468 -0.825529 -0.264634
-0.495505 0.849857 -0.179493
0.445016 -0.478149 -0.757188
-0.006417 0.003531 0.999973
-0.386048 0.707495 -0.591962
0.188947 0.458268 -0.868498
-0.116298 0.913127 0.390736
-0.717105 0.579815 -0.386750
0.038112 0.013237 0.999186
-0.892354 0.429410 0.138963
0.658801 0.391524 -0.642409
-0.831994 -0.238966 0.500681
-0.003616 -0.045690 -0.998949
-0.465438 0.104118 0.878935
-0.176534 -0.040528 -0.983460
0.267641 0.226776 0.936451
0.982296 0.034609 -0.184110
-0.983540 -0.152939 -0.096222
0.523523 0.776074 0.351614
-0.178395 0.376408 -0.909116
-0.864060 0.243273 0.440703
-0.352813 0.384065 0.853239
-0.080616 -0.092515 -0.992442
-0.574543 0.499248 -0.648577
-0.848300 0.012649 -0.529364
-0.180881 0.711719 0.678777
0.249677 0.696142 -0.673088
0.077977 0.116774 -0.990093
-0.357694 0.755748 0.548544
0.277381 -0.284487 0.917675
0.855245 -0.280925 -0.435473
-0.390140 0.626860 -0.674416
0.869950 0.181678 0.458454
-0.033708 0.045223 0.998408
-0.216748 0.211912 -0.952950
-0.022854 0.211134 -0.977190
-0.430503 0.438718 0.788793
0.005388 -0.992367 -0.123201
-0.469290 0.876690 0.105742
0.108917 -0.073824 -0.991306
-0.114765 0.160587 -0.980327
-0.635695 0.267060 0.724272
0.970241 0.048694 -0.237195
0.449863 -0.514634 -0.729914
-0.568721 0.103587 0.815982
0.061652 0.826422 0.559666
0.244809 -0.085255 0.965816
0.592827 0.052436 0.803621
-0.308416 -0.596819 0.740734
0.835653 0.351675 0.421911
0.963651 -0.266918 0.011421
-0.237737 0.162815 -0.957587
0.442462 -0.419553 0.792592
0.046593 0.998416 -0.031544
0.106652 0.108420 -0.988367
0.918849 0.231371 -0.319663
0.297639 -0.070591 -0.952065
-0.767312 0.621916 0.156375
0.657869 -0.684484 -0.314148
0.896857 -0.083066 0.434451
0.281334 0.620935 0.731636
-0.262268 -0.017561 -0.964835
0.607409 0.730136 0.312980
-0.758255 -0.601223 0.252151
0.395867 -0.410011 -0.821694
-0.321106 -0.014202 -0.946937
0.941415 0.265140 -0.208418
-0.883892 -0.035552 -0.466338
0.166276 -0.283177 -0.944544
-0.046307 -0.817591 0.573934
0.505414 0.290367 0.812554
-0.192975 -0.287788 0.938050
-0.618910 -0.684987 -0.384374
-0.446213 -0.620747 -0.644645
0.129052 0.336460 -0.932813
-0.823019 -0.014560 -0.567828
0.204367 0.259774 0.943796
0.116671 0.054639 -0.991666
-0.754959 -0.070111 -0.652014
0.285125 -0.631162 -0.721345
-0.864955 -0.098868 0.492014
-0.358707 -0.876016 -0.322375
0.911582 0.001271 -0.411116
0.188308 0.183674 0.964782
0.104349 0.374687 0.921261
0.206294 -0.779017 0.592094
0.248412 0.512240 0.822133
0.705959 -0.467069 0.532418
0.689389 -0.681003 0.246936
0.374290 0.255087 -0.891537
0.469862 -0.009637 -0.882687
-0.008163 -0.008927 0.999927
-0.616247 0.728122 0.300129
-0.103903 0.509800 -0.853995
0.157176 0.099647 0.982531
-0.144891 0.446319 0.883066
0.152618 0.765400 -0.625197
-0.898715 0.109770 -0.424572
-0.745221 0.331054 0.578834
0.565792 0.577769 -0.588271
0.160040 0.639150 -0.752247
0.942630 -0.329842 0.051510
0.131852 -0.767324 -0.627558
-0.556098 0.755991 -0.345302
-0.480642 0.865220 0.142750
0.499544 -0.466148 -0.730180
0.883755 -0.160938 -0.439403
-0.398221 -0.072589 -0.914413
0.087861 0.080940 -0.992839
-0.193859 0.036144 -0.980363
0.078370 -0.010894 0.996865
0.532698 0.229386 0.814625
-0.650104 0.694530 -0.308209
