x y z
-0.066685 0.063253 -1.005954
0.332431 0.910334 -0.228530
0.022723 0.070698 0.990294
0.003834 0.546869 0.824622
-0.255778 0.859434 -0.416197
-0.752682 -0.641912 -0.018498
-0.918414 0.085749 0.427034
-0.373822 -0.070682 -0.924641
-0.173087 -0.347305 0.947782
-0.844176 0.145716 -0.513811
-0.156381 -0.579387 0.792450
-0.321984 -0.003473 0.947522
-0.306528 -0.924667 -0.263988
-0.877692 -0.351697 0.310465
0.523990 0.480222 0.681236
0.903039 0.026485 0.409849
-0.088944 1.002443 0.031374
-0.433477 0.243679 0.885140
0.136143 0.079097 -0.995027
0.040112 -0.084276 -1.006350
-0.005121 0.786114 -0.637476
0.005541 -0.025365 0.985894
0.748499 0.468191 0.453527
0.749555 -0.617309 -0.223149
-0.815710 0.365991 -0.414341
0.328821 0.876075 -0.365323
0.645092 0.009083 -0.754722
-0.169056 0.512284 0.848041
0.212007 -0.641299 0.738795
-0.539097 0.407548 -0.746845
0.533515 -0.533955 -0.644431
-0.050790 -0.687137 0.715081
-0.555130 0.061646 -0.839740
-0.074438 -0.387332 -0.922308
0.132368 -0.979548 0.137534
0.388711 0.215930 -0.896945
-0.510514 0.042854 -0.855640
-0.293768 -0.694380 0.641558
0.662670 -0.454276 0.613600
0.526196 -0.238411 0.814964
0.455587 0.852144 -0.216418
-0.062480 0.556930 -0.828130
0.166088 0.081981 0.987415
-0.006939 0.247604 -0.975282
-0.121659 -0.636238 -0.748151
-0.146580 -0.164148 0.975190
0.161679 0.890251 -0.385217
-0.481961 0.710399 -0.513235
0.273300 -0.749201 -0.628982
0.142244 -0.314827 0.927648
-0.340164 -0.858377 0.429710
0.318586 -0.579363 -0.750386
-0.039638 -0.133991 -0.996909
0.012964 0.646080 -0.785602
-0.689284 0.340363 0.652406
-0.090639 0.014200 -0.979883
-0.141382 -0.408954 0.891937
0.614337 -0.200872 0.752341
-0.483708 0.130823 -0.865371
0.023209 0.030563 -1.001738
-0.539670 0.712006 0.441506
0.009951 -0.964454 -0.261475
-0.528560 0.131992 -0.836623
-0.633188 0.604256 0.478620
0.104627 0.428077 0.898417
0.438932 0.419630 -0.792160
-0.306973 -0.868548 0.350849
0.263617 -0.830032 0.473188
0.823795 -0.099777 0.561198
0.226409 -0.066060 0.975591
-0.040906 -0.120625 -1.003514
-0.097701 -0.023657 0.985315
0.016374 0.191281 0.967026
-0.120735 -0.911551 0.402709
0.750731 0.067988 -0.631246
0.032231 -0.052078 -1.002036
0.422422 -0.084474 -0.905969
0.753548 -0.652883 0.217200
0.466387 -0.098165 0.886501
0.383845 -0.371212 0.837307
0.213463 -0.916024 -0.340752
0.307054 -0.010364 -0.941599
0.296385 0.145954 0.940977
-0.375851 -0.102207 0.905182
-0.282681 0.701072 0.664094
-0.315587 0.071940 0.944123
0.431498 -0.479717 0.774021
-0.282934 0.346592 -0.896408
0.365976 0.104822 -0.935267
-0.221050 0.003801 -0.972923
-0.890804 0.447230 -0.006376
-0.726208 0.167420 0.663816
0.035838 -0.762011 0.633853
0.395973 -0.041871 -0.924704
0.672934 -0.457087 -0.561938
0.109165 0.401123 0.907854
0.794402 0.196742 -0.577680
-0.841073 -0.522211 0.045413
0.069874 -0.109856 -0.999822
0.282817 0.453571 -0.851422
0.014712 0.066619 0.999720
0.648415 0.077312 0.768701
-0.806245 -0.492156 -0.334689
0.282623 0.610762 -0.732882
0.191288 0.449942 0.872178
0.350649 -0.157428 -0.930565
0.384510 -0.933621 -0.046647
-0.705687 -0.340910 -0.595465
0.431100 -0.372092 -0.815570
0.014292 -0.782766 -0.629445
0.025958 0.777808 -0.618693
-0.424156 0.276480 -0.880844
-0.693760 -0.175699 -0.690052
-0.101907 0.273188 0.950004
-0.620619 -0.729395 0.260610
0.856224 -0.533981 0.080804
0.396008 -0.230786 -0.905063
0.109894 0.989246 -0.122832
-0.867799 -0.521561 0.079882
0.509566 -0.761271 0.409566
-0.091367 -0.999627 0.134939
-0.208151 0.971748 -0.172833
0.160581 0.893998 0.427965
0.472529 -0.151661 -0.875433
-0.153022 0.076377 -0.971296
-0.205833 0.588618 -0.751566
0.974240 -0.252551 0.152143
-0.736166 0.676774 0.081961
-0.884449 0.443430 0.151773
-0.806658 -0.085986 -0.585782
-0.285861 0.319495 -0.912752
-0.935531 0.233850 0.238800
-0.244942 -0.541659 0.798974
0.224485 -0.071474 -0.973705
-0.003973 -0.003146 -0.999225
0.016607 -0.976549 0.255040
-0.273790 0.856805 0.434091
0.301612 0.267589 -0.925216
-0.325174 0.063600 -0.932534
-0.762209 0.649103 0.083534
0.802279 -0.578988 0.126951
-0.697559 -0.243213 -0.683260
0.698437 -0.542816 0.492007
0.151866 -0.917589 -0.369971
0.888558 0.279945 0.390390
-0.799489 -0.165136 -0.604392
0.032155 0.522079 0.878040
0.155661 -0.951368 -0.216133
-0.781492 0.160490 0.584367
-0.003477 0.052722 0.988887
0.230792 -0.091078 0.961698
0.016417 0.606852 0.790127
-0.950143 -0.120375 0.253130
-0.547794 -0.781038 0.323670
0.983578 -0.066819 -0.093832
-0.736782 -0.034182 0.660971
0.351702 0.094260 0.918828
0.350611 -0.927091 0.107007
0.331204 0.349241 -0.871845
0.221164 0.002789 -0.983220
0.118509 -0.098373 0.992516
0.538319 0.838857 0.007846
-0.111323 0.038581 1.000327
0.255964 -0.104285 0.949283
-0.002626 -0.007848 -1.004605
-0.902891 -0.085240 0.464096
-0.061366 0.389895 -0.919316
-0.147462 0.252979 -0.949191
0.516725 -0.481334 0.698422
0.066492 -0.588654 0.800450
-0.458934 -0.708435 -0.536845
-0.158747 0.849438 0.500834
0.167523 0.072223 -0.991353
0.395878 0.875419 0.250042
0.874085 0.163943 0.464566
-0.883722 -0.159006 -0.450243
0.342027 0.862226 -0.346887
0.268620 -0.046793 -0.955729
0.315642 -0.934783 -0.183279
0.100627 0.029827 0.984302
-0.432874 -0.071647 0.920537
-0.677718 -0.230170 0.695402
0.607657 -0.103386 -0.781751
-0.446124 -0.510431 -0.744124
0.009719 -0.001542 -0.989745
0.611273 -0.147851 -0.781104
0.294849 0.892724 0.274594
0.435187 -0.703984 -0.600056
-0.108857 0.322632 -0.943562
-0.019325 0.194371 0.970836
0.149743 0.682463 0.714849
0.079636 -0.043557 0.990789
-0.369756 0.747035 -0.556312
-0.135780 -0.467426 0.874105
0.318460 0.140395 0.957162
0.568836 0.309457 0.754871
0.745052 -0.678023 -0.038387
-0.621379 0.635006 0.449178
0.527490 0.461459 -0.733659
-0.011590 -0.043466 0.994731
