x y z
-0.206601 0.219166 -0.952037
-0.248966 0.294074 0.922216
0.005855 0.014132 -1.006161
-0.683413 0.626557 0.399640
0.966720 -0.174125 -0.134824
0.671711 0.018956 0.764905
0.229979 -0.267196 -0.933101
-0.049149 -0.547912 -0.837104
-0.546702 0.392847 -0.709717
-0.032551 -0.031312 -1.012684
0.105989 -0.515141 -0.863750
-0.372076 -0.338590 0.849699
0.851998 -0.464077 0.209489
0.143435 0.380220 -0.912665
0.119560 -0.882240 0.467777
-0.652883 -0.503934 0.602592
-0.694243 0.073569 0.703980
0.255375 0.273193 -0.933881
0.431597 -0.869035 -0.205976
0.022994 -0.391648 -0.908764
-0.067277 0.447698 -0.871787
-0.573033 -0.397632 0.719337
0.750245 0.141975 -0.649315
0.930092 0.048712 0.401185
0.269578 -0.002175 0.969169
-0.764351 -0.261938 -0.576286
0.422565 0.060395 0.900435
-0.125317 -0.017644 -1.006279
-0.056077 -0.557944 -0.827691
-0.335862 -0.173695 -0.918980
-0.486243 -0.286612 -0.819402
0.825196 0.549199 -0.169537
0.202409 0.933803 0.276876
0.099282 -0.477917 0.868911
0.254403 0.924458 0.242463
0.197763 -0.991901 -0.034733
-0.618151 -0.683248 -0.378926
0.814799 0.344457 -0.452125
-0.320207 0.594574 -0.754863
0.576920 0.017672 -0.846566
0.045489 -0.260166 0.953448
-0.061762 -0.976684 0.153157
0.796319 0.554251 0.234740
-0.188888 0.094169 -0.962243
-0.846063 0.406893 0.363193
0.015020 0.071878 -1.012725
-0.619599 -0.081073 0.789288
-0.589442 -0.466855 -0.647184
0.775906 0.184439 -0.622755
0.269815 -0.111241 -0.955399
-0.001151 -0.893447 0.415296
0.614319 0.362378 -0.678690
-0.885993 -0.435462 -0.150722
0.715325 -0.571900 0.383206
-0.931908 -0.072141 -0.361343
-0.017885 0.141060 0.976752
0.071650 -0.205943 -0.959153
0.861299 0.489302 0.091933
-0.214322 0.828578 -0.515926
0.422200 0.352692 0.841649
-0.935188 0.310314 -0.165759
-0.388682 0.931392 -0.056875
0.208382 0.904162 0.344770
-0.517927 -0.154259 0.840959
-0.358002 -0.783011 -0.517553
0.079373 0.976110 0.216208
-0.033557 -0.300158 -0.945939
-0.789144 -0.264165 -0.535515
-0.655563 -0.678697 -0.318400
-0.188515 0.399818 -0.896103
-0.051645 0.149212 0.989451
0.388748 -0.678884 -0.591820
-0.305193 0.338378 0.891353
0.183630 -0.008031 -0.974080
-0.278205 -0.144981 -0.945097
-0.225657 0.770197 0.593997
-0.767285 0.301065 -0.541357
-0.235695 -0.200144 0.930262
-0.098357 0.900554 0.402239
0.484142 -0.003286 0.869026
-0.872158 0.380269 -0.258566
0.657820 0.018411 -0.775191
-0.492512 -0.871176 0.029761
-0.271091 -0.282134 -0.926423
-0.372994 -0.034947 -0.915309
-0.015803 -0.009978 -0.998668
-0.358323 -0.039620 -0.936228
0.138014 0.099762 -0.984279
-0.040010 -0.342553 0.951026
0.620751 0.669842 0.381583
0.636071 -0.237343 0.732466
-0.006296 -0.028262 1.003566
-0.781729 -0.142663 0.604029
-0.110657 0.028312 1.007320
0.513413 -0.616748 -0.600010
0.028144 -0.013882 1.004991
-0.550391 0.434528 -0.715727
-0.165221 0.230558 0.950083
0.651505 0.038417 -0.752590
-0.059648 0.696159 0.708019
-0.832431 -0.530993 0.119004
-0.808217 0.560484 0.241444
0.939227 0.134015 0.307278
-0.307513 0.211471 -0.958332
-0.276058 0.173551 0.943587
-0.685651 0.216600 0.707292
0.888853 -0.043963 0.376681
-0.778041 -0.213144 -0.582836
-0.228307 -0.199090 -0.943648
-0.680268 0.729388 -0.099723
0.529457 -0.006325 -0.840312
0.013593 0.060054 -1.007194
0.314675 0.406678 0.868117
-0.806874 -0.366738 0.469891
0.641409 0.143285 0.761284
0.497675 -0.439612 0.740715
0.013447 0.011952 1.009109
0.223555 0.412581 0.868862
0.532479 -0.185402 -0.838083
0.264707 0.390421 0.890438
-0.058306 -0.104512 0.996361
-0.646590 0.596349 -0.492251
-0.287307 -0.545168 -0.773122
-0.211674 -0.639487 0.744214
0.157949 0.057449 -0.989367
0.074881 0.759461 -0.655784
-0.195300 0.584158 -0.770539
-0.494445 0.007798 0.858774
-0.006836 -0.825916 -0.552368
-0.456753 0.008415 -0.887286
0.046565 -0.048494 0.987234
0.013550 0.183362 -0.990110
-0.821697 0.067217 -0.565932
-0.034293 0.584836 0.810196
-0.721532 0.557111 -0.436901
0.096030 -0.036948 -0.984647
0.424643 -0.460690 0.794939
-0.071654 0.036153 1.010093
-0.066932 -0.198599 0.946049
-0.771306 -0.079091 0.609218
-0.159401 0.918407 -0.360681
0.113916 -0.545061 -0.831726
-0.635361 0.490953 0.578610
0.404100 -0.426584 0.814880
0.814826 0.174035 -0.554862
-0.291989 0.098380 0.964828
-0.366310 -0.900546 -0.199068
-0.852138 0.118716 -0.534969
0.772584 0.508490 -0.418174
0.682488 0.596899 0.442588
0.657650 0.206736 0.699491
0.030699 0.716016 0.702421
0.382745 -0.824729 0.417779
-0.314726 0.259008 -0.903558
0.178173 0.916346 0.377757
-0.437423 -0.376215 -0.824104
0.698141 0.415944 0.572969
0.006981 -0.295906 -0.958569
0.412197 0.608563 -0.657558
0.818280 -0.517836 -0.304022
0.037850 0.999286 0.158161
-0.455466 0.144684 0.869922
0.331420 -0.750201 -0.564738
-0.804083 0.450434 0.398409
-1.002085 -0.010758 -0.051901
0.102808 0.162211 -0.978843
-0.058440 -0.902192 -0.395130
0.660003 0.579343 -0.489106
0.246410 0.648846 -0.729321
0.319726 -0.599115 0.731718
0.153094 0.957018 0.267427
-0.406250 0.883036 0.247844
-0.550698 0.598762 -0.573779
0.642380 -0.615292 -0.423846
-0.034937 0.241285 0.979223
0.946533 -0.081838 -0.296347
-0.531983 0.097509 -0.839217
-0.533927 0.459904 0.706918
-0.476562 -0.623036 0.593435
-0.019778 0.632727 -0.769103
-0.102757 -0.717653 -0.674850
0.484092 0.783860 0.357576
0.571528 -0.706530 -0.372047
-0.055087 0.776477 0.608181
0.465125 0.441403 0.781782
0.138681 -0.244669 -0.946586
-0.013111 0.019450 1.008305
0.407252 0.059839 -0.920542
-0.244339 -0.659025 -0.731296
-0.279604 -0.917559 0.263290
0.869185 -0.297797 -0.410560
-0.680198 0.078300 -0.731620
0.100558 0.586932 -0.796397
-0.915398 -0.426004 0.036325
-0.204700 -0.112705 0.983037
-0.556353 0.300320 0.751463
-0.429696 0.013083 0.895626
-0.563246 -0.302898 0.758536
0.358657 0.619313 -0.701226
0.559228 -0.718195 0.431529
