x y z
0.042546 0.381208 -0.926543
-0.073270 -0.178098 -0.994074
-0.499975 0.492328 -0.697151
-0.290164 0.306421 0.890562
0.084213 0.076893 -0.979713
-0.164781 0.280534 -0.946164
0.355308 0.822578 0.420477
0.557637 0.779718 -0.307608
-0.025098 -0.020833 1.002277
0.599080 0.169014 0.764880
0.042257 0.214273 0.975492
0.853581 0.475105 -0.268601
0.077920 -0.244253 -0.962423
0.114765 0.723230 0.689301
0.078724 -0.044056 -1.004748
0.176848 -0.945484 0.166806
0.581480 0.265222 -0.772944
0.089635 0.133271 0.983150
0.420306 -0.905277 -0.164454
-0.927206 -0.373902 -0.098433
-0.177629 -0.323578 0.907691
-0.253634 0.273080 -0.917733
-0.305437 -0.400086 0.864401
0.845017 -0.216019 -0.490879
-0.953998 -0.244834 0.202321
0.146287 -0.268928 0.948485
-0.618546 -0.608057 0.488978
0.003679 -0.702432 -0.700452
-0.558958 0.532749 -0.628693
-0.427218 0.431819 0.776623
-0.195253 0.775515 0.579347
0.344746 -0.109648 -0.940258
-0.176795 -0.532163 -0.821283
-0.351743 -0.453808 -0.826976
0.473678 0.052222 -0.883488
0.585461 -0.497317 0.643431
0.612417 0.309029 0.738236
0.047255 0.132341 0.975129
0.021476 -0.295774 -0.973750
-0.388248 -0.901206 0.256169
-0.836341 0.357103 -0.371091
-0.145748 0.033141 -1.002836
-0.371929 0.189416 -0.921670
0.098296 -0.036375 -0.994702
-0.627038 0.008751 -0.758688
-0.560445 0.675098 -0.494518
-0.974461 0.035364 -0.293937
-0.836681 0.325567 0.445231
0.006708 0.778298 -0.644961
0.416350 0.071810 -0.901395
-0.725894 -0.498174 -0.478125
0.867067 -0.278557 -0.437481
-0.343269 0.320491 -0.901313
0.100410 -0.487806 0.853868
0.923053 0.149811 -0.338558
-0.733968 0.211747 -0.673255
0.089687 0.637903 -0.763796
0.435056 0.241942 0.877985
0.178066 0.969461 0.151589
-0.014411 0.004942 -1.003380
0.408286 -0.477895 -0.773034
0.047318 -0.598201 0.790633
0.571699 -0.760970 -0.354869
0.665438 -0.027720 -0.753196
0.003369 0.006257 -0.999879
0.077183 0.053615 0.987782
-0.034610 0.077970 -0.999767
-0.019339 -0.305098 -0.952934
-0.137136 -0.059058 -0.984457
0.076301 0.809534 -0.602786
0.942857 0.047022 -0.309112
-0.368631 0.863699 0.322758
-0.363724 0.193372 0.876953
0.154888 0.233028 0.963268
0.784525 -0.276589 0.560253
0.984128 -0.136152 -0.023958
0.404051 -0.159372 0.903764
0.740068 0.066675 -0.674527
0.862193 0.429823 0.219907
-0.221752 -0.467064 0.860389
0.623180 -0.807319 0.101083
0.785365 0.208342 0.586103
0.077850 -0.912132 -0.424169
0.506732 0.431698 -0.733035
0.655934 0.135937 -0.748134
0.452758 0.310003 0.858294
0.158352 -0.725114 0.668696
-0.816679 0.593523 0.126178
0.446945 0.294131 0.850678
-0.904926 -0.044408 0.436940
0.241650 0.968405 -0.135446
-0.171280 0.239833 0.948804
-0.120218 -0.380140 -0.902434
-0.200302 0.418090 0.887301
0.219639 -0.945172 -0.249898
0.300866 0.042976 0.959972
-0.671016 -0.067207 0.700660
-0.010803 -0.079757 -0.983179
0.213336 -0.278034 -0.918542
0.910778 0.289706 0.342274
-0.491656 0.622301 0.584953
-0.471346 -0.863068 -0.219766
0.920525 -0.338403 0.153470
-0.612989 0.749949 0.264521
0.004936 -0.000351 1.018678
-0.925658 -0.165887 0.319985
0.032816 0.022233 1.016185
-0.152286 -0.256978 -0.951426
-0.354069 0.940573 -0.107253
0.415391 -0.004162 0.912637
0.348673 -0.235180 0.893526
-0.070239 -0.309424 0.933351
0.408612 0.829873 0.370197
-0.343303 0.225150 -0.922610
0.103936 -0.207997 0.971614
-0.464285 -0.724952 0.493620
-0.802104 -0.057938 0.589156
0.691640 0.260146 -0.666102
-0.061897 0.311421 -0.960414
0.266451 0.154830 0.948749
0.598982 -0.289756 -0.754458
0.475877 -0.799897 -0.368804
-0.511317 -0.158529 -0.845837
-0.083288 0.390058 -0.918277
0.061847 -0.001706 -0.980615
-0.209832 0.200355 0.943725
0.470564 0.868357 -0.035957
-0.029719 -0.977683 0.220642
-0.674944 0.706149 -0.089965
0.906022 0.219218 0.401515
0.403414 0.223704 0.870280
0.501070 0.521675 0.701987
-0.196807 -0.261395 -0.912645
-0.833398 -0.362759 0.411558
0.075590 -0.191256 -0.975879
-0.388000 -0.427726 0.810686
0.047859 -0.710066 -0.714662
0.141336 -0.711545 0.687300
-0.035409 -0.046940 -0.991061
0.649856 0.392377 0.686094
-0.920850 0.385611 0.116420
-0.797753 -0.518739 -0.285501
-0.891184 0.438180 0.142100
-0.583292 -0.513796 -0.620543
0.078237 0.226107 -0.986060
0.019301 0.010258 0.993545
-0.944806 -0.251632 -0.226615
0.060563 0.607684 -0.796071
-0.568202 -0.150079 0.818642
-0.934696 0.250097 0.206440
0.078406 0.090372 -0.996849
-0.237804 0.735662 0.636196
0.859334 0.494109 0.132514
-0.124443 -0.020175 -0.995999
0.207773 -0.165744 -0.970106
-0.193472 0.375027 0.928533
-0.314013 0.078993 0.942112
0.652770 -0.556009 -0.511380
0.018738 -0.023059 0.997318
0.953432 -0.167759 0.172351
-0.677032 -0.736001 0.103209
-0.308895 -0.597789 0.749164
-0.498899 -0.069040 -0.848377
-0.465727 -0.136760 -0.855363
-0.975077 -0.027278 -0.205976
-0.598295 0.534804 -0.603754
0.517656 0.354894 0.781052
-0.524589 0.494292 0.676328
0.692735 -0.334855 -0.655541
0.003387 -0.019172 -1.002176
0.277931 -0.086399 -0.959424
0.852325 0.311176 0.412502
-0.971753 -0.171888 -0.182888
-0.980948 0.251965 0.126286
-0.071846 0.048942 -0.986704
0.108473 0.204336 0.984395
-0.002646 0.787752 0.615604
0.750979 -0.394088 -0.534956
-0.066898 -0.834826 -0.524114
-0.489603 0.198963 -0.861632
-0.662983 0.653399 0.355696
0.738746 -0.018735 0.665214
0.965731 -0.183314 -0.108831
-0.139528 0.009504 -0.982706
0.306893 0.079228 0.932899
0.495822 -0.703515 0.514825
0.900542 0.435345 -0.039415
0.523146 0.829262 0.211137
0.013317 0.988328 -0.142776
-0.019748 -0.269468 -0.952344
-0.113434 -0.030362 0.982913
-0.966507 0.221806 0.165714
-0.733184 0.589177 -0.350049
-0.039709 0.122805 -0.980000
-0.314648 0.005022 -0.964511
0.704036 -0.562461 0.445410
0.312131 0.274780 -0.918604
-0.179494 -0.051468 0.973423
0.457623 0.398314 -0.780248
-0.032003 -0.501675 0.860758
