x y z
-0.606219 -0.793643 0.051276
-0.385441 -0.330024 0.861695
0.058359 0.970353 0.234542
0.285829 0.688694 -0.666335
0.018405 0.015016 -0.999718
-0.258234 -0.609080 0.749891
0.454822 0.692599 0.559860
-0.446809 -0.889799 0.092841
0.602840 -0.785600 -0.139341
0.487343 0.300466 0.819888
-0.182630 -0.642513 0.744193
0.892072 -0.372847 -0.255328
0.050042 -0.235908 -0.970486
0.987130 0.158099 -0.024073
0.086230 -0.049666 0.995037
-0.342453 0.357378 -0.868911
-0.299707 0.193044 0.934296
-0.181305 0.267672 0.946298
0.427225 -0.005210 -0.904130
0.466300 -0.459434 0.755966
0.513319 0.852978 0.094510
-0.806966 -0.459191 0.371415
-0.173287 0.079736 0.981638
0.943503 0.236390 -0.232213
-0.962997 0.040685 -0.266423
-0.293038 0.928007 -0.230071
0.554301 -0.787997 -0.267977
-0.828157 -0.402845 0.389709
-0.044686 0.588708 -0.807110
0.949737 0.313011 0.004868
-0.612588 0.741544 0.273584
-0.137891 0.162782 -0.976979
0.220847 0.143979 0.964623
-0.308236 0.458087 -0.833755
0.362863 -0.198642 0.910424
-0.350880 0.522087 -0.777373
-0.837415 -0.507934 -0.201841
0.504464 0.280419 -0.816628
-0.314929 -0.584078 0.748113
-0.588171 0.158786 0.792995
-0.387164 -0.509532 -0.768427
-0.024176 -0.284810 -0.958279
0.413031 -0.904212 -0.108658
-0.639767 0.765735 0.065936
0.420563 0.904237 -0.074044
0.789580 -0.139440 -0.597595
0.888767 0.232355 0.395101
0.171316 -0.124348 -0.977337
-0.124603 0.985066 0.118821
0.475626 -0.697142 -0.536444
0.225875 -0.628038 -0.744680
-0.518102 0.789315 -0.329472
0.248936 -0.061288 0.966579
-0.041405 0.052614 0.997756
-0.601533 0.167195 -0.781155
0.097488 -0.270658 -0.957727
-0.268053 -0.495799 -0.826034
0.430023 0.341327 0.835809
-0.824294 -0.442485 -0.353195
-0.145703 -0.832995 0.533751
0.237745 0.121563 -0.963691
0.490238 0.871525 -0.010572
-0.454861 0.259182 0.852013
-0.959634 0.264389 -0.095923
0.164646 -0.768295 -0.618558
0.155019 0.129206 -0.979426
0.603921 0.790511 -0.101842
-0.152886 -0.866861 -0.474529
-0.529035 -0.074637 0.845312
0.718402 0.693876 -0.049333
-0.324662 -0.050205 0.944497
-0.739508 0.671999 -0.039311
-0.630550 0.753789 -0.184957
-0.234658 0.127405 0.963693
0.547749 -0.189548 -0.814888
0.823834 0.411896 -0.389408
0.492880 0.804821 0.330653
-0.418305 -0.619804 0.663976
0.121962 -0.319529 -0.939695
0.029939 0.003580 -0.999545
0.862532 -0.298738 0.408404
-0.180893 0.933992 -0.308117
-0.262924 0.393891 -0.880750
0.023389 0.144782 -0.989187
-0.233276 0.743841 -0.626325
0.630309 0.187385 -0.753391
0.980392 -0.181051 -0.077793
0.009404 0.456206 0.889825
-0.066609 0.107366 0.991986
-0.187648 -0.737702 -0.648525
-0.636361 0.565158 0.525015
0.603356 -0.342266 -0.720289
0.903225 0.177836 -0.390587
-0.172270 -0.323893 -0.930278
0.778889 0.105042 0.618303
-0.844582 -0.325558 0.425081
-0.541302 0.827462 -0.149328
-0.761630 -0.545309 0.350082
-0.856954 -0.053937 -0.512562
0.140959 -0.730365 -0.668355
-0.136811 -0.038568 0.989846
-0.627967 -0.096721 0.772206
-0.897627 -0.242104 -0.368308
-0.205836 0.855784 -0.474620
0.102271 -0.034347 0.994163
-0.276682 -0.950563 -0.140987
0.118054 0.974023 0.193244
-0.245735 0.276020 0.929208
-0.288978 -0.018658 -0.957154
-0.860441 -0.302469 -0.410065
-0.190649 -0.140553 0.971544
-0.141889 0.987924 0.062238
-0.816795 -0.132920 0.561408
0.488664 0.671953 -0.556495
0.672754 0.277673 -0.685784
0.171287 -0.071938 0.982591
0.410110 -0.103648 -0.906128
-0.108508 0.043629 0.993138
-0.495514 0.332830 -0.802303
-0.683433 -0.097530 0.723469
0.301412 -0.868854 0.392738
0.032626 0.762335 0.646360
0.597165 -0.782886 0.174595
0.602240 -0.698542 -0.386453
0.264060 0.421673 -0.867447
0.408190 0.812893 -0.415434
-0.432915 0.506708 -0.745541
-0.952541 -0.282245 0.114029
-0.759082 0.363348 -0.540160
-0.120325 0.380274 -0.917013
0.056432 -0.228714 0.971857
-0.096703 0.223523 -0.969890
0.120089 0.965281 0.231974
-0.316450 -0.256571 -0.913253
-0.723506 -0.321315 -0.610980
0.161190 0.137962 -0.977233
-0.597210 0.553637 0.580368
0.406341 -0.414500 0.814295
0.396793 0.346129 -0.850147
0.586992 -0.541844 -0.601536
0.509675 0.803980 0.306345
0.602535 0.115210 0.789733
0.286549 -0.802616 0.523161
-0.513409 0.440914 -0.736211
0.187259 0.128112 -0.973921
-0.195970 -0.888430 0.415076
-0.751739 -0.033243 0.658622
-0.089763 0.025461 0.995638
-0.183758 0.866231 -0.464626
-0.126751 -0.600473 0.789536
0.182915 0.204672 0.961588
-0.859545 -0.433446 0.270752
-0.294096 -0.282691 -0.913013
0.032848 -0.759055 0.650197
-0.728275 0.636272 -0.254508
-0.351068 0.917214 -0.188336
0.249255 0.855053 0.454705
0.015401 0.009916 0.999832
-0.557612 -0.047926 -0.828717
0.021429 0.574578 -0.818170
-0.668527 0.488772 0.560512
-0.580391 0.537294 0.611933
-0.202773 0.581950 -0.787539
-0.168915 -0.462496 0.870382
-0.294086 0.357852 0.886259
0.104630 -0.124616 -0.986673
-0.015771 0.827013 -0.561962
0.273958 -0.961572 -0.018045
-0.875043 -0.300711 0.379305
0.211281 0.120733 0.969940
-0.598194 -0.720904 0.349945
0.025312 0.102205 -0.994441
0.229181 -0.967178 -0.109741
0.233224 -0.149153 0.960916
0.098604 -0.981383 0.164817
-0.268124 -0.959257 0.089078
0.706466 -0.111183 -0.698959
-0.062667 0.679975 -0.730553
-0.999293 -0.037511 0.002686
-0.439003 0.705518 0.556346
-0.245846 -0.375795 0.893498
-0.814222 -0.516180 -0.265707
0.874266 0.072148 -0.480056
-0.104038 0.150251 0.983158
0.034010 -0.247561 -0.968275
0.411778 0.877050 -0.247431
0.310765 0.442054 -0.841435
-0.270308 0.762695 -0.587563
-0.707974 0.236575 0.665436
-0.103219 0.387221 -0.916191
-0.660248 -0.695649 0.283099
0.606977 0.482082 -0.631803
0.765429 0.338351 0.547392
-0.455970 0.826754 0.329499
0.261684 -0.121723 0.957447
-0.761688 0.633328 -0.136845
0.391403 0.567960 0.724034
0.445220 0.699543 0.558945
-0.618011 -0.655584 0.433904
-0.526639 -0.776378 -0.346249
