x y z
0.895307 -0.375838 0.236531
0.255127 0.066548 -0.983805
-0.888299 0.196839 0.378190
0.032953 0.348120 -0.925438
-0.285127 0.307264 -0.910937
-0.119913 -0.263799 -0.939588
0.767851 -0.645454 -0.131545
0.023171 -0.046986 -0.998527
-0.141566 -0.455031 -0.892924
0.181858 -0.027580 0.978842
0.579224 0.687642 0.402101
0.135193 -0.256406 0.947534
0.165474 -0.632140 -0.757151
-0.567955 -0.794610 -0.223616
-0.109709 0.939393 0.371149
-0.397628 0.914823 0.072717
0.172625 -0.385702 -0.901784
-0.740024 -0.257616 -0.625104
-0.270528 0.030030 -0.964944
0.512356 -0.860615 -0.081968
0.198459 0.000538 0.995958
-0.962055 0.201196 0.264879
-0.382786 -0.778852 0.507375
-0.002782 -0.428730 0.897903
0.218939 0.499543 0.840662
0.075309 0.807664 0.584140
-0.581634 0.802376 -0.125915
0.122668 0.180076 -0.987939
-0.268232 -0.731141 0.613616
-0.423971 0.189194 -0.900602
-0.660516 -0.727122 -0.039498
0.226727 -0.209939 0.954994
-0.360055 -0.521669 -0.760669
-0.601761 0.498793 0.608959
-0.272256 -0.223178 -0.937497
-0.018891 -0.381884 0.919746
0.044175 -0.799566 0.589935
-0.087737 0.167468 -0.991309
-0.150311 0.523381 0.823400
-0.019558 -0.278480 -0.965780
-0.380007 -0.508179 -0.748832
-0.970376 -0.047665 -0.168889
-0.492767 0.267437 0.825815
-0.674084 -0.533543 -0.495609
0.430070 0.329362 -0.838500
-0.019042 0.000168 -0.993272
-0.542820 -0.012943 -0.830829
-0.916924 -0.168763 0.383781
0.125808 -0.471378 0.866096
0.837207 -0.335313 -0.434647
0.634809 -0.550166 0.524131
-0.575479 -0.405456 -0.706019
0.010170 -0.034625 -1.011682
0.187691 0.180988 0.953728
-0.634195 0.777446 -0.089280
0.714532 -0.262373 -0.610231
0.516767 0.068183 0.833248
-0.591654 0.421047 0.693096
0.507686 0.065324 -0.864061
-0.220310 0.398978 -0.902596
-0.259591 0.712801 -0.650120
-0.330362 0.190917 -0.915063
-0.102813 -0.162895 -0.984531
0.553245 -0.190049 -0.788723
0.640842 -0.164707 0.770374
0.835454 0.034554 0.523675
-0.921414 0.429274 -0.058085
0.101055 0.023267 0.990531
0.371531 0.909921 -0.273967
0.832644 -0.151021 0.517663
-0.686814 0.517292 0.552415
0.962981 -0.319230 0.107005
-0.815715 -0.564395 -0.136036
0.619369 0.158231 -0.759474
-0.034796 -0.027031 -0.995608
0.324143 -0.321228 -0.873399
0.059406 -0.533301 -0.844897
-0.078577 0.976531 -0.149282
0.111829 -0.390968 -0.950661
0.955735 0.177226 -0.144895
0.698587 0.594113 0.409491
-0.046520 -0.998353 0.016919
0.070318 -0.074648 -0.999053
-0.096449 -0.767670 0.624903
-0.247836 0.132264 0.956183
0.024990 0.995788 -0.077251
0.770913 -0.018184 -0.643166
0.599962 -0.365652 -0.736141
0.618991 -0.515422 -0.583395
0.054359 0.996266 0.089201
0.166866 -0.099712 0.974195
0.072625 0.108636 -0.987972
0.694930 0.682759 0.252850
-0.059751 0.403107 0.908701
-0.121465 0.855529 0.428327
0.053786 -0.022358 0.998997
0.640354 0.702962 -0.279709
0.015843 0.730563 0.676535
0.576563 -0.259401 -0.793478
-0.180649 -0.922075 0.369324
0.671365 -0.153127 0.741557
0.803723 0.090457 0.616410
0.026014 0.011403 0.994166
0.825726 0.026485 -0.550834
-0.790477 0.188323 -0.568682
0.776376 0.600279 -0.201828
0.642617 0.091358 -0.765398
0.700177 0.432672 0.596851
-0.025180 -0.099322 1.014227
-0.034549 0.041997 -1.001776
0.643175 0.260641 0.733994
0.815105 -0.115687 0.586072
-0.924455 0.342259 -0.151949
0.836195 0.026399 -0.553185
-0.088449 0.080713 0.990180
0.879867 -0.362464 0.284938
0.844069 0.388910 0.392803
-0.819245 0.494933 -0.236830
0.460556 -0.373247 0.802602
0.978530 0.014272 0.182497
-0.395815 -0.439506 -0.802039
-0.605025 0.117818 -0.799167
-0.001356 0.005833 -0.994697
0.487911 -0.841731 -0.241338
-0.752133 -0.107921 -0.664316
-0.045687 0.554392 0.819954
0.121015 0.086867 -0.987352
-0.486356 -0.842335 -0.265035
-0.873422 -0.282022 0.439424
-0.670302 0.275023 0.682073
0.780195 0.187323 -0.562154
-0.653474 -0.272881 0.719517
-0.092321 -0.355244 -0.950150
0.019522 -0.081714 -1.009074
-0.095657 0.277543 0.985307
-0.214174 -0.702966 0.668522
-0.375356 0.914578 0.054989
-0.086827 -0.145370 0.995625
0.753458 0.624615 -0.207538
0.160338 0.829677 0.525910
0.276115 -0.913611 0.268344
0.334094 0.944078 -0.193555
-0.020853 -0.680200 0.724838
0.490609 0.479724 -0.745957
0.160908 -0.957375 -0.152048
0.041189 0.053383 0.987399
0.095079 -0.180633 -0.981356
-0.443211 -0.068326 -0.913865
0.627947 0.568096 -0.554091
-0.725816 0.414574 0.570828
-0.245544 0.616812 0.756704
0.495641 0.106517 -0.883975
0.482068 0.205313 -0.860477
-0.832091 -0.457734 0.319500
-0.824685 -0.552425 0.214047
0.024022 -0.056940 -0.996706
-0.676652 0.722096 0.161369
-0.172845 0.536203 0.816403
0.127907 -0.073675 0.997268
0.666277 0.732416 -0.015522
-0.014701 0.031674 -1.002738
0.327570 -0.183306 0.930611
-0.919190 -0.064355 0.356145
-0.552227 -0.742134 -0.362373
0.451283 0.877973 -0.237449
-0.261277 -0.955922 -0.172093
0.868163 -0.201874 -0.422622
0.054599 -0.090010 0.998989
-0.017894 0.366924 0.909603
0.947694 0.306012 0.105179
-0.307726 -0.734674 -0.609947
-0.152926 -0.630957 -0.777054
0.544988 -0.455596 0.697408
-0.461342 -0.479730 -0.770569
-0.422126 -0.251286 0.877082
0.629364 -0.434764 0.637891
0.304024 0.412439 0.860517
0.067726 -0.135570 -1.000183
0.833123 -0.565514 0.041404
-0.709734 -0.010131 0.720798
-0.665140 0.594706 -0.451730
-0.306668 -0.181197 0.920242
0.629694 -0.611389 0.497776
0.275670 -0.054389 -0.966623
0.758689 0.373895 0.568543
0.459349 0.599974 -0.650688
-0.154578 0.796095 0.602853
-0.933404 0.394697 -0.007542
-0.806772 0.572551 -0.145334
-0.476959 0.104735 0.866052
0.412711 -0.714721 0.540812
0.777898 0.341760 -0.511934
-0.228483 -0.659665 -0.714011
0.006578 -0.424873 0.904270
-0.266868 -0.739388 -0.590321
0.054530 -0.885852 0.459108
-0.317592 -0.267599 -0.923928
-0.176163 -0.221713 -0.945314
0.299676 0.219245 0.928799
-0.532839 0.215364 -0.819800
