x y z
0.479892 -0.505961 0.712102
-0.893881 -0.218582 -0.411950
-0.152940 0.504523 -0.845709
0.077847 0.975867 -0.198771
-0.092557 -0.596810 0.802572
0.348240 0.923517 -0.232856
0.509283 0.529538 -0.702678
-0.370549 0.204083 0.899149
-0.488919 -0.870094 -0.078103
-0.151895 0.086894 0.980939
0.121342 -0.048107 -1.002022
-0.730135 0.158901 0.638919
0.090347 0.237034 0.953431
-0.192172 0.941048 -0.289968
-0.151780 0.470514 0.876448
0.879775 -0.156232 -0.422133
0.649653 0.727375 -0.202042
-0.432390 -0.893037 -0.072847
0.976430 -0.117578 0.171322
-0.010361 0.075972 -0.981979
0.659400 -0.415836 -0.613717
-0.412680 -0.213808 0.873874
0.129175 -0.771384 -0.651980
0.974636 0.190175 -0.073977
-0.032804 0.016214 -0.998804
0.301149 0.635762 0.681966
0.261000 -0.105460 -0.952938
-0.503101 0.192003 -0.840719
0.051137 -0.259555 -0.973184
0.207935 0.191327 -0.962827
0.200619 0.278103 -0.936670
-0.169610 0.070659 0.969502
0.637060 0.185396 -0.740961
0.709519 0.548427 -0.409248
-0.488821 -0.773852 -0.373518
-0.990817 0.169538 0.041479
-0.046773 0.010644 -0.977973
-0.039556 -0.899621 -0.433181
0.212257 0.196518 0.960794
-0.087966 -0.127044 0.995022
0.202139 -0.293203 -0.927423
0.060557 -0.054439 1.023784
0.239266 -0.252068 -0.957248
0.022424 -0.015292 1.019048
-0.483833 0.861599 0.066754
0.069549 -0.170391 0.983881
0.168679 -0.799343 0.570379
0.011332 0.004783 0.998422
-0.390170 0.089169 -0.926402
-0.528736 -0.247171 -0.814807
0.489927 -0.397577 0.791114
-0.049067 0.941535 -0.345418
0.110533 0.141091 -0.999227
-0.024368 0.678299 -0.726586
0.330047 -0.828560 -0.477676
0.793763 0.090976 0.608855
-0.013144 -0.569906 -0.822454
-0.559760 -0.807630 -0.209787
-0.042058 0.025964 1.000753
0.034748 -0.245426 0.973634
0.613399 -0.198829 -0.770418
-0.567703 -0.385047 -0.726623
0.974195 -0.142047 -0.130914
-0.383827 0.586407 -0.706064
0.004302 -0.033389 -1.008619
-0.161684 0.925931 -0.322803
-0.049514 -0.144690 0.992252
0.486090 0.109633 -0.858013
-0.334599 0.356618 -0.877684
-0.010049 -0.774342 -0.634271
-0.138452 0.982424 0.128167
0.478682 -0.848679 -0.283862
-0.206985 -0.588532 0.784257
0.422198 -0.790034 -0.455571
0.062564 -0.708379 -0.697318
0.049169 -0.780602 -0.641614
0.848856 0.141294 0.463578
0.256080 0.534785 0.785790
-0.002010 -0.065997 1.005187
-0.020644 0.791060 0.622594
0.158477 0.435778 0.886866
-0.931745 0.196999 0.302745
0.394002 -0.320357 -0.858522
0.414326 -0.729940 -0.539061
-0.397562 0.648836 0.647791
0.565842 -0.754426 0.300764
-0.109154 0.701752 -0.704913
0.493409 -0.780484 0.359564
-0.068292 -0.215227 0.976102
0.611266 -0.707683 0.360697
-0.361327 0.098243 -0.941731
-0.439077 0.095214 0.879369
0.025095 0.144122 -0.997960
-0.455210 0.633271 0.626114
-0.879514 0.248730 0.385962
0.555314 -0.731436 -0.403366
0.006919 -0.022887 1.016080
0.306654 -0.161219 0.932636
0.638388 -0.483744 -0.587940
-0.146810 -0.185359 -0.986117
0.790625 0.505897 -0.322987
-0.992670 -0.092079 -0.021007
-0.826646 0.128263 -0.560338
-0.195880 -0.416663 0.900501
0.449187 -0.598616 -0.681501
-0.104231 0.626180 0.764918
0.948484 0.091689 0.314475
-0.035901 -0.031113 0.998712
-0.199514 0.008089 0.985454
-0.065096 -0.956730 0.327142
-0.273506 0.580294 -0.786901
0.047697 -0.587111 0.791034
-0.644846 0.516091 -0.566706
-0.587855 0.331465 0.725155
0.339522 -0.932842 -0.002486
0.491552 0.749651 0.454321
0.363385 -0.283404 0.881725
0.108309 -0.212088 -0.946256
-0.039875 -0.016012 1.010159
-0.521323 0.623275 0.575323
0.587196 -0.801325 -0.160935
0.829199 0.568495 -0.090781
-0.208560 -0.066170 -0.978543
-0.024468 -0.109473 0.992273
-0.255609 -0.694056 -0.678681
0.367642 -0.036828 -0.921265
1.003687 0.093104 0.072625
-0.651405 0.755421 0.121238
-0.629062 -0.735264 -0.236288
0.207588 0.545535 -0.810220
-0.064866 -0.213011 -0.982091
0.546518 -0.154681 -0.815345
-0.221688 0.020047 -0.966809
0.094404 0.800671 0.638860
-0.524249 -0.144018 -0.828744
-0.911574 0.101698 -0.362822
0.211675 -0.698871 0.685190
-0.002650 -0.418081 -0.897927
-0.835126 -0.255283 -0.484330
-0.671405 -0.575814 0.465536
0.195731 0.356320 0.921918
0.783096 0.536073 -0.315292
-0.036894 0.514869 -0.838273
-0.630554 -0.622570 0.466747
0.706109 -0.711365 -0.059653
0.051265 0.111798 0.983574
-0.097000 -0.530213 0.834770
0.012688 0.021220 -0.998350
-0.295774 -0.283506 -0.901607
0.146902 -0.034701 0.971038
0.615996 -0.195676 0.757619
0.585232 -0.325726 -0.740563
-0.681948 0.427732 -0.573455
0.838387 0.428110 -0.320467
0.112353 -0.692265 0.702896
-0.078436 0.554841 -0.826528
-0.185700 -0.557177 -0.814268
0.040488 0.682197 -0.738247
-0.041774 0.949591 0.328668
0.617831 0.527754 0.591982
0.336609 0.628956 -0.709684
-0.392687 -0.830793 0.397499
-0.125740 -0.432375 0.890721
-0.077283 0.933685 0.347311
-0.123485 -0.003821 -0.989973
-0.714129 0.224705 -0.686379
0.592127 -0.765746 -0.253040
-0.910304 -0.099547 -0.430663
-0.495662 -0.132486 -0.864522
-0.938487 0.323368 0.073138
-0.440102 0.700185 0.571804
-0.919898 -0.144749 0.376273
0.222578 0.036469 0.964771
0.044323 -0.163782 -0.983951
-0.119318 0.127029 -0.990372
0.036268 -0.036725 1.007413
0.074774 -0.162922 -0.965346
0.904647 -0.354128 0.238570
-0.296237 0.831412 0.439382
-0.715594 -0.071199 0.679157
-0.216217 0.112807 0.966039
-0.725098 -0.631610 0.260311
-0.221016 0.306422 -0.923650
0.560836 0.806200 -0.055871
-0.447214 -0.432996 0.787021
0.948274 0.133214 -0.205381
0.069677 -0.280679 0.955745
-0.704006 0.427567 0.575876
-0.020934 0.229769 -0.977717
-0.263224 0.424069 0.869047
0.561435 -0.183041 0.820567
-0.034907 0.345482 0.915573
-0.845351 -0.070302 -0.511907
0.914860 -0.169073 0.380726
-0.151194 -0.990981 0.058695
-0.593197 -0.003112 -0.793657
-0.202764 -0.048608 0.974382
-0.830375 0.512672 -0.109182
-0.438753 0.148929 0.876406
0.164334 -0.229709 0.936007
