x y z
-0.496706 -0.867916 -0.002225
0.162180 0.633714 0.756376
-0.663749 0.522222 0.535464
0.621657 -0.128744 0.772636
0.604272 -0.487189 0.630478
0.056748 0.011984 0.998317
-0.038727 -0.001125 -0.999249
-0.624903 0.550027 -0.554046
-0.106499 0.017309 0.994162
-0.624906 0.694780 -0.356052
0.121715 0.077960 0.989499
-0.272298 -0.403350 -0.873592
0.152326 0.083527 -0.984794
-0.526746 0.692153 -0.493420
-0.871132 0.198046 -0.449341
-0.710099 0.635362 -0.303438
-0.183605 0.126782 0.974790
-0.395761 -0.186552 0.899206
-0.082155 0.033695 0.996050
0.325726 -0.563003 -0.759559
-0.488135 -0.805739 -0.335425
0.045244 0.088603 0.995039
0.735331 -0.667742 -0.115802
-0.336963 -0.886990 -0.315761
0.318786 -0.926346 0.200646
0.221559 -0.218204 -0.950420
-0.770282 -0.208847 0.602536
0.070812 -0.397557 -0.914841
0.273031 -0.884205 0.378992
0.931581 0.113765 -0.345275
-0.139776 0.288938 -0.947089
-0.512926 -0.223889 0.828722
-0.243611 -0.940774 -0.235790
-0.031017 -0.968177 0.248338
0.966085 0.250381 -0.063156
0.314266 0.813745 0.488933
0.464959 0.376487 0.801293
0.598776 0.717424 -0.356048
0.918199 -0.009226 0.396012
0.094615 -0.273211 -0.957290
0.973519 -0.202485 -0.106114
-0.024411 -0.932055 -0.361493
-0.312072 -0.573240 0.757632
0.224800 -0.042670 0.973470
-0.721002 0.257999 0.643112
0.264891 0.133409 0.955005
0.039764 0.085188 0.995571
0.250787 0.268990 -0.929920
0.073780 -0.072198 -0.994658
0.001407 0.054032 -0.998538
-0.129351 0.774858 0.618759
-0.388478 -0.596150 -0.702631
0.294946 -0.734698 -0.610922
0.825411 0.093384 -0.556755
-0.138445 0.990294 0.012297
-0.571700 0.231925 -0.787001
0.268767 0.376336 -0.886643
0.495771 -0.270567 -0.825230
0.140298 -0.456507 0.878588
-0.733691 0.590837 0.335572
0.111524 0.774158 -0.623090
0.179744 -0.140428 0.973639
-0.640954 0.276712 0.715967
-0.288324 -0.956176 -0.050955
0.292921 0.888531 -0.353142
-0.850660 0.121233 -0.511547
0.160119 -0.986402 -0.037056
-0.139630 0.981036 -0.134429
-0.155999 -0.433659 0.887471
0.033051 -0.738708 0.673215
-0.093675 0.549387 0.830301
-0.545451 0.831772 -0.103144
0.933248 -0.305675 -0.188710
0.179337 0.015500 0.983666
-0.057822 -0.895047 0.442207
0.820613 -0.301162 0.485691
-0.062582 0.380224 -0.922775
-0.252076 -0.106068 -0.961877
0.173805 -0.918507 0.355158
-0.830495 -0.368111 0.418058
0.386080 0.630726 0.673147
0.146350 -0.944801 0.293142
0.137696 -0.894845 0.424609
-0.868365 0.207022 0.450648
0.225803 0.916896 -0.329112
0.159169 -0.218637 0.962737
0.561307 0.337400 -0.755709
0.232132 -0.009003 0.972643
-0.280162 -0.009754 -0.959903
-0.863008 0.201449 -0.463288
-0.709872 -0.372535 -0.597746
-0.554115 -0.725446 -0.408269
-0.413762 0.094343 0.905483
-0.157815 0.766726 0.622274
-0.057804 0.047557 0.997195
-0.138547 -0.610085 -0.780129
0.511429 -0.679741 0.525730
0.852308 -0.468645 -0.232256
-0.549402 -0.739370 0.389216
0.268473 0.963287 -0.000335
0.508335 -0.786042 0.351758
0.000194 0.001927 -0.999998
0.548928 0.032239 0.835248
0.161317 0.188854 0.968665
-0.005909 0.053200 -0.998566
0.111195 0.370885 0.921998
-0.158138 0.066424 -0.985180
-0.167350 -0.207130 0.963894
-0.780724 0.072748 0.620627
0.174806 0.536063 -0.825881
0.497774 -0.810661 0.308302
-0.943337 0.221654 -0.246952
0.870932 -0.451255 0.194542
0.896704 -0.437034 -0.070172
-0.080728 0.695668 -0.713813
0.372639 -0.555910 0.743038
-0.705747 0.623264 0.336841
0.604722 -0.323790 -0.727647
0.230247 -0.003963 -0.973124
0.015909 0.042481 -0.998971
0.754542 0.628558 -0.188632
-0.607405 -0.326054 0.724395
-0.217306 -0.235217 0.947339
-0.557806 0.171121 0.812140
-0.156379 -0.146886 -0.976714
0.569815 -0.456421 0.683367
-0.458568 -0.885724 -0.072167
-0.296816 -0.954903 -0.007746
0.829135 -0.012770 -0.558902
0.334117 0.155905 -0.929548
-0.805641 0.572650 -0.151707
-0.609010 -0.027215 -0.792695
-0.154783 -0.960385 -0.231740
-0.653613 0.516750 -0.552955
-0.443337 -0.567920 0.693484
0.103546 0.327699 0.939091
-0.224149 0.808059 0.544792
0.062454 -0.741489 -0.668052
-0.559321 -0.477310 -0.677743
0.358482 0.731801 -0.579619
0.368942 0.311753 -0.875609
-0.573289 0.464439 -0.675008
0.356617 0.247625 0.900837
0.217340 0.031158 -0.975599
0.898165 -0.433955 0.070593
0.331564 -0.596645 0.730808
0.878818 0.458751 0.131248
-0.633306 0.742390 -0.218587
-0.054432 0.067170 0.996256
-0.352068 -0.831113 0.430465
-0.146977 0.043952 -0.988163
-0.331195 0.338930 -0.880589
-0.000860 0.345124 -0.938557
-0.854237 -0.492965 -0.165122
-0.899192 -0.390556 0.197283
0.801190 -0.434377 0.411597
0.027669 0.038076 0.998892
-0.331948 -0.659998 -0.673954
0.529957 0.230198 0.816183
0.021085 0.036763 0.999102
-0.225077 0.042473 -0.973415
0.014223 -0.005027 0.999886
-0.680739 -0.128656 0.721140
-0.670973 -0.531718 -0.516789
-0.569510 -0.461953 -0.679896
-0.411221 -0.646800 -0.642298
-0.244380 0.837319 -0.489055
0.265854 -0.091297 0.959680
-0.296975 0.815041 -0.497508
-0.985661 0.162497 -0.045471
-0.078427 0.991299 -0.105713
0.234507 -0.237402 0.942681
-0.013807 -0.032738 -0.999369
0.072823 0.190270 0.979027
-0.433229 0.866469 -0.248079
-0.566366 0.823897 0.020577
0.253453 -0.039922 0.966524
0.032826 0.013603 0.999369
0.007551 0.002804 -0.999968
0.304616 0.157287 0.939399
0.128795 0.096794 -0.986936
0.496870 0.703698 -0.507868
0.915522 -0.272119 0.296260
0.951952 0.267770 -0.148617
-0.282329 -0.437751 0.853619
0.120266 -0.053618 -0.991293
-0.688293 0.024370 0.725024
0.551849 0.730605 -0.402093
0.024258 -0.154301 0.987726
-0.052499 -0.067354 -0.996347
0.299895 0.863487 -0.405527
0.877850 0.470436 0.089830
0.109706 0.078322 -0.990873
-0.470684 -0.121065 0.873956
-0.306688 0.861776 -0.404086
-0.517811 0.772168 0.368276
-0.065426 -0.413141 0.908314
-0.512380 0.374958 0.772576
0.300216 0.091737 -0.949450
0.502435 -0.405017 0.763885
