x y z
-0.594776 0.798049 0.096746
-0.461852 -0.615181 0.638940
0.191929 -0.884198 0.425860
0.234544 0.375486 0.896660
0.859764 0.030673 0.509770
-0.498689 0.866208 -0.031521
-0.047980 0.053404 0.997420
-0.099673 -0.362177 0.926765
-0.578912 0.028733 -0.814884
0.621091 -0.263551 0.738097
0.842738 0.360823 -0.399500
-0.039197 0.205164 -0.977942
0.652650 0.625825 0.427074
-0.006994 0.350620 -0.936492
0.310140 -0.118498 -0.943277
0.086848 -0.445625 0.890997
-0.952938 -0.288462 -0.093269
-0.971218 0.200037 -0.129307
-0.037802 -0.140052 -0.989422
-0.299184 -0.621792 -0.723784
-0.118357 0.350363 -0.929106
0.302567 0.115240 0.946136
0.690612 0.511796 0.510999
0.103829 0.862053 0.496070
-0.339032 0.836711 -0.430083
0.647352 -0.576954 -0.498055
0.422677 -0.526315 0.737791
0.458796 -0.220912 -0.860641
0.636023 0.580641 -0.508262
-0.235535 -0.269688 0.933698
-0.510432 -0.154457 0.845932
-0.291824 -0.225197 0.929583
0.415651 0.786550 -0.456698
0.609932 0.650704 0.452291
0.541206 -0.622602 0.565210
-0.459026 0.664433 -0.589766
-0.496802 -0.865579 0.062929
0.317645 -0.173462 -0.932209
-0.001541 -0.052515 -0.998619
-0.304486 -0.001812 -0.952515
-0.774069 -0.088542 -0.626879
0.109352 -0.774582 -0.622949
-0.007194 0.205262 -0.978681
0.955006 0.109388 -0.275676
-0.007053 -0.060896 -0.998119
-0.804648 0.592966 -0.030553
-0.184758 0.382963 0.905099
-0.288423 0.690343 0.663505
0.737047 0.018944 -0.675576
-0.587325 -0.132291 -0.798466
-0.173665 -0.062727 0.982805
-0.630603 0.712645 -0.307371
-0.620577 0.098301 0.777960
-0.605897 0.207151 -0.768099
0.480751 0.830447 -0.281488
0.003045 0.475201 0.879872
0.247979 -0.347752 0.904199
0.084385 0.653723 -0.752014
0.665343 -0.213882 -0.715244
0.486044 -0.356451 -0.797937
0.651545 -0.045201 0.757262
-0.988379 0.003683 0.151968
-0.503593 -0.858878 0.093392
-0.318938 0.304334 -0.897585
-0.667408 -0.705028 -0.239797
-0.296465 -0.890199 0.345909
0.216566 -0.794361 0.567529
0.039164 -0.107465 0.993437
0.260881 -0.099311 -0.960249
-0.352321 0.608981 -0.710642
-0.506471 -0.608421 -0.610991
0.148921 0.098057 0.983975
-0.199041 0.928375 -0.313849
-0.156930 -0.228028 0.960925
-0.071281 -0.332814 -0.940295
-0.049107 -0.017402 -0.998642
0.498592 0.428530 -0.753503
-0.671032 -0.682558 -0.289535
-0.652973 -0.170968 0.737832
-0.192035 -0.815724 -0.545634
-0.195148 0.887465 0.417521
-0.454435 0.633462 0.626271
-0.607583 -0.112510 0.786247
0.161037 -0.152595 -0.975081
0.273588 -0.492095 -0.826433
0.777563 0.578982 0.245306
0.238816 0.437726 -0.866812
0.232078 -0.303975 0.923980
0.029563 0.653975 -0.755938
-0.313714 0.660890 -0.681768
0.218221 -0.074885 0.973022
0.039588 0.996980 -0.066814
-0.372753 0.815762 0.442254
-0.194146 0.052647 -0.979559
0.167065 -0.958900 -0.229345
-0.786930 -0.242614 -0.567345
-0.178565 -0.056991 0.982276
0.807890 0.194765 0.556220
-0.173234 0.303067 0.937091
0.914581 0.097644 0.392437
0.312543 -0.082304 -0.946331
-0.001387 0.959047 -0.283243
-0.093360 -0.345890 0.933619
0.471854 0.810922 0.346064
0.019732 0.730447 0.682685
0.836032 -0.179056 -0.518642
-0.002938 0.034946 0.999385
0.311423 -0.039893 -0.949434
0.219572 -0.579483 -0.784848
-0.015398 -0.999202 0.036858
0.046413 0.003030 -0.998918
0.068670 -0.015651 -0.997517
0.046430 -0.424717 -0.904135
0.913544 0.352884 -0.202265
0.828483 0.529113 0.183455
-0.000307 0.937716 0.347402
0.058449 -0.015929 -0.998163
0.121394 0.046863 0.991497
-0.572535 -0.582737 0.576733
-0.078542 0.070377 -0.994424
0.226275 0.916113 0.330964
0.730142 0.244983 0.637869
-0.548062 0.125816 -0.826921
-0.916432 0.353192 0.188170
0.051709 0.129819 0.990188
-0.486817 0.870906 0.067328
0.125979 -0.197206 0.972234
-0.317837 0.935244 0.155879
0.678578 -0.643440 0.354283
0.666442 -0.241569 0.705336
0.268457 0.635270 0.724129
-0.350533 0.147359 0.924885
-0.137490 -0.406520 -0.903237
-0.650357 0.757165 -0.061133
0.522122 -0.850658 0.061394
0.304136 0.323549 0.896001
-0.710699 0.372724 0.596644
0.976753 -0.210651 -0.039738
-0.145385 -0.865233 0.479827
0.206809 -0.932015 0.297621
0.468203 -0.693765 -0.547244
-0.280456 -0.958069 0.058722
-0.775166 -0.501600 -0.384076
-0.616321 0.665547 -0.420945
0.268380 -0.411051 0.871212
0.590856 -0.728594 -0.346466
-0.265987 -0.364863 0.892259
0.573229 0.490844 -0.656111
-0.299209 0.134685 -0.944634
-0.814049 -0.546409 0.196878
-0.492621 -0.596807 0.633361
0.408050 -0.321846 0.854348
-0.850750 0.475236 -0.224445
-0.387153 -0.270010 -0.881594
-0.283958 0.511443 0.811045
-0.326029 0.155720 -0.932446
0.381732 0.398213 -0.834091
0.302325 -0.924869 0.230688
0.912859 0.065903 -0.402921
-0.867195 0.472562 -0.157029
0.632564 -0.734151 0.246750
-0.004711 0.005860 -0.999972
0.129633 -0.202414 -0.970682
-0.222469 -0.183971 -0.957425
-0.027005 -0.404934 0.913947
0.104019 0.339123 -0.934974
0.836225 -0.380747 -0.394665
-0.660698 0.554180 -0.506322
-0.081373 -0.199215 -0.976571
-0.098859 -0.955055 0.279459
0.787851 -0.592477 -0.168113
0.244702 0.159850 -0.956331
0.033206 0.046921 0.998347
0.873362 0.238444 -0.424717
-0.419612 -0.453628 -0.786224
0.056758 -0.137165 -0.988921
-0.003690 0.050376 0.998724
0.449165 0.374293 -0.811268
-0.151817 0.322615 0.934276
0.394382 0.087660 -0.914756
-0.918743 -0.285518 -0.272747
-0.287529 0.790183 0.541237
0.827123 -0.462902 0.318733
0.173041 0.366729 -0.914094
-0.004392 -0.030657 0.999520
-0.026880 -0.051775 0.998297
0.319591 -0.445419 -0.836339
-0.799713 0.557681 0.222373
0.266222 0.295863 -0.917383
-0.284307 0.465703 0.838028
0.538083 -0.519361 0.663876
-0.191357 -0.978077 0.082143
-0.262890 0.037900 -0.964081
0.026326 0.900047 -0.434997
-0.524000 -0.454816 0.720115
0.346377 0.924527 0.158973
-0.943104 -0.034279 0.330727
0.970395 -0.238326 0.039160
0.317573 0.218156 0.922798
0.122503 -0.828732 0.546074
