x y z
0.567222 -0.463390 -0.680830
0.447728 -0.831955 -0.327705
-0.762182 -0.624477 -0.170607
0.949380 -0.298253 -0.098602
0.854347 -0.495248 0.157543
-0.998398 -0.051354 0.023736
0.621920 -0.229260 -0.748769
0.719595 -0.070843 -0.690771
0.160741 0.033447 0.986430
0.026860 0.171370 0.984841
0.037780 0.659253 -0.750971
0.992652 0.018884 -0.119520
-0.844348 0.526811 0.097701
0.096242 -0.090622 -0.991224
-0.616633 0.168753 -0.768951
-0.678097 -0.080225 0.730581
-0.557971 0.175917 -0.811000
0.431511 0.664585 0.610020
-0.318923 -0.633074 -0.705341
-0.431225 0.324106 -0.842021
0.969897 0.041938 -0.239877
-0.149186 -0.200395 0.968290
-0.505814 -0.818516 -0.272368
0.957652 -0.191352 0.215145
0.162892 -0.222410 0.961249
-0.052201 0.087827 0.994767
-0.721528 0.216229 -0.657756
-0.657226 -0.732741 0.176481
-0.218570 0.604942 -0.765684
-0.400575 0.654466 0.641259
-0.200200 0.319407 0.926229
-0.633211 -0.486885 0.601653
0.516899 -0.689772 -0.506981
0.106986 0.803911 0.585048
-0.775235 -0.094319 -0.624591
0.377560 -0.142263 0.914992
-0.470725 0.791379 0.390048
0.356463 0.469946 -0.807518
-0.320217 -0.580811 -0.748411
-0.642357 -0.121174 -0.756766
0.493557 -0.867489 -0.062165
0.144595 0.243473 0.959069
0.552267 0.795176 -0.250392
0.640758 -0.472155 -0.605392
0.134972 -0.930385 -0.340832
0.603979 -0.784479 0.140721
-0.134853 0.804669 -0.578206
0.007260 -0.004648 0.999963
-0.744506 0.396472 0.537142
0.794200 0.550513 -0.257258
-0.519892 0.824891 0.221960
-0.006531 -0.015340 -0.999861
0.279075 0.182883 -0.942693
0.109121 0.110298 -0.987890
0.300413 0.125637 -0.945498
-0.041295 -0.107240 -0.993375
-0.507064 -0.861392 0.029836
0.064397 -0.049702 0.996686
-0.282992 -0.411107 0.866549
0.040215 -0.267608 -0.962688
-0.148682 0.929245 -0.338226
-0.283457 0.909514 0.304035
-0.350716 0.435463 -0.829078
0.341687 -0.134782 0.930099
-0.042275 0.020247 0.998901
0.763343 -0.057020 0.643472
0.393118 0.092798 0.914793
0.904027 -0.384770 -0.186243
0.983597 -0.072605 -0.165123
-0.282835 -0.532409 0.797838
-0.076339 0.664731 -0.743172
-0.643593 0.611239 0.460623
-0.816212 0.193178 0.544500
0.633360 -0.187021 0.750918
0.012868 -0.824450 -0.565789
-0.930578 -0.309004 -0.196321
0.357987 0.921624 0.149850
0.187394 -0.782378 -0.593942
-0.785695 -0.595453 -0.167687
0.912709 0.078155 0.401066
-0.630167 0.129654 0.765559
-0.629387 -0.382211 -0.676599
0.350272 0.483122 0.802435
-0.609551 -0.092555 -0.787325
0.263416 -0.921005 0.286988
0.463559 -0.884238 0.056889
-0.889591 0.037023 0.455255
0.173208 0.021725 -0.984646
0.540226 0.752041 0.377610
-0.126023 0.763885 0.632928
0.496186 -0.122480 0.859533
-0.209789 -0.057976 0.976026
-0.041337 0.802971 -0.594582
0.624757 -0.766003 0.151390
0.348203 0.024656 -0.937095
0.608770 -0.502713 0.613742
0.945500 -0.303614 0.117675
-0.256106 0.508872 0.821863
0.842110 0.330416 -0.426234
-0.464495 -0.763455 -0.448755
0.174839 -0.045199 0.983559
0.008707 -0.004760 -0.999951
0.024488 -0.500539 -0.865368
-0.368700 -0.830656 0.417218
-0.790396 -0.302639 0.532619
-0.029036 -0.466335 -0.884131
-0.642303 -0.496657 0.583763
-0.114939 0.417542 -0.901359
-0.088565 -0.034330 0.995479
-0.822988 0.290011 -0.488451
0.020415 -0.968034 0.249987
-0.506046 0.409555 -0.759067
0.348381 0.043530 -0.936342
0.104027 -0.013514 -0.994483
0.223850 -0.972260 0.067839
-0.311408 0.872121 -0.377400
-0.295674 -0.328870 -0.896895
-0.975121 -0.022896 0.220486
0.170442 0.630085 -0.757590
0.607273 -0.163870 -0.777410
0.010046 -0.132949 -0.991072
0.000670 -0.175080 -0.984554
0.409157 0.575896 -0.707768
-0.014614 0.046815 0.998797
-0.369779 0.368259 -0.853023
-0.725345 -0.518120 0.453240
-0.334682 -0.041434 0.941420
0.176385 0.267218 0.947356
-0.190327 0.011446 0.981654
0.048928 0.134490 -0.989706
0.208765 0.020185 0.977757
0.891008 -0.410331 -0.194249
0.352799 -0.332968 -0.874451
-0.389862 0.770651 0.504088
0.086295 0.146888 -0.985382
-0.290362 -0.538396 0.791088
-0.908811 -0.315220 0.273311
0.013350 -0.016955 0.999767
-0.272677 -0.714333 -0.644497
0.511841 0.531918 0.674598
-0.364542 0.334120 0.869179
0.639324 0.732848 0.232806
-0.111044 0.660007 -0.743007
0.960659 -0.216851 0.173524
-0.315467 -0.071844 0.946213
0.749390 -0.173022 0.639122
-0.013607 0.975925 0.217684
0.347125 -0.110663 -0.931267
0.939851 0.060658 -0.336156
0.289836 0.857349 -0.425379
-0.204347 -0.622439 -0.755521
0.328971 -0.937207 0.115847
-0.112825 0.050240 0.992344
-0.077660 -0.109844 -0.990910
-0.197453 0.964686 -0.174337
-0.969498 0.206244 0.132426
-0.711888 0.298102 0.635886
0.696696 0.650389 -0.302670
0.719827 -0.355479 0.596225
0.030551 -0.141220 -0.989507
-0.218780 -0.907885 0.357602
-0.173339 0.870214 -0.461175
0.041017 0.184874 0.981906
0.384940 0.778184 0.496237
-0.855522 -0.516863 -0.030574
-0.241423 -0.289676 -0.926176
0.232013 0.701174 0.674185
0.087383 0.095956 -0.991543
0.998333 -0.043409 0.038049
-0.055565 0.015196 -0.998339
-0.545880 0.651715 -0.526576
0.021781 0.152663 -0.988038
0.427656 0.826453 0.366177
-0.300949 -0.845562 -0.440970
-0.453186 0.890923 -0.029655
0.462861 0.620093 -0.633438
0.832245 -0.015962 0.554178
-0.931184 -0.363486 0.027846
-0.141069 -0.007468 -0.989972
-0.146185 0.242854 -0.958985
-0.970138 -0.204292 -0.130758
0.486966 -0.865410 0.118026
-0.821281 -0.558782 0.115154
-0.302880 -0.952691 0.025382
-0.556267 -0.704599 0.440577
0.360250 -0.495175 0.790583
0.226217 0.067137 0.971760
-0.318024 -0.125073 0.939797
-0.104353 -0.122698 -0.986943
0.720615 -0.194422 0.665518
-0.018085 -0.496140 0.868054
-0.135227 -0.112068 0.984456
0.495338 -0.862013 0.107580
-0.707357 -0.482909 0.516182
0.018979 0.003695 0.999813
0.430082 -0.531975 0.729406
0.045297 -0.409806 0.911047
0.013190 0.015441 -0.999794
-0.128786 0.920624 -0.368599
0.572735 -0.191107 0.797153
