x y z
-0.900064 0.250191 -0.356777
-0.641231 -0.072328 0.763932
-0.147516 0.651241 -0.744396
-0.311992 -0.914855 0.256324
0.127471 -0.148799 -0.980617
-0.428528 0.238651 0.871441
0.004176 -0.000522 -0.999991
-0.018938 -0.041840 0.998945
0.297441 -0.195032 -0.934607
0.883287 -0.446027 0.144444
-0.229798 0.291711 -0.928492
0.225645 -0.491683 0.841030
-0.629755 -0.610670 0.480094
-0.019487 0.788040 0.615315
-0.037622 -0.088383 -0.995376
0.255583 -0.261439 0.930767
0.487079 -0.015883 -0.873214
-0.630649 -0.752132 -0.191256
0.843824 -0.335248 -0.419010
0.906785 -0.176656 0.382797
-0.577856 -0.689765 -0.436241
0.080123 0.994289 -0.070499
0.084767 -0.426957 -0.900290
-0.344525 -0.575529 -0.741666
-0.645871 0.737585 0.197025
0.540868 -0.176018 -0.822484
0.279416 -0.422224 0.862353
0.830833 -0.299829 0.468848
0.093297 0.405571 -0.909290
-0.254160 -0.171824 0.951777
-0.534731 0.083074 -0.840929
0.126024 -0.701330 -0.701608
0.826946 -0.153773 0.540845
-0.403339 -0.285467 -0.869382
-0.993292 -0.022037 0.113512
0.174559 -0.942580 -0.284732
0.036313 -0.998786 0.033291
0.592595 -0.395905 -0.701491
0.202114 -0.027047 0.978988
0.103244 -0.981659 -0.160267
0.134995 0.313782 -0.939850
-0.863638 0.503249 0.029497
0.422669 -0.906120 0.017241
0.089238 0.874280 -0.477149
0.125446 0.015478 0.991980
-0.574862 -0.597306 -0.559249
0.222064 0.135354 0.965591
-0.329399 -0.142436 0.933385
-0.512639 -0.378046 0.770897
0.898145 0.362021 -0.249553
0.145249 -0.373150 -0.916331
0.787492 -0.459250 0.411031
0.291680 -0.531849 -0.795022
0.338460 -0.049117 -0.939698
-0.158263 0.046264 0.986313
-0.642621 -0.331610 -0.690705
0.919231 -0.212303 0.331575
-0.034984 0.786541 0.616547
0.089522 0.984835 -0.148616
0.908562 0.278648 -0.311239
-0.408595 0.189638 0.892798
0.171662 0.110552 0.978933
0.353291 0.215754 -0.910294
-0.477126 0.089873 -0.874227
-0.458912 -0.154951 0.874865
-0.300026 0.120967 0.946230
-0.038772 0.100180 -0.994214
0.888391 -0.459042 0.006505
0.935286 -0.274938 0.222823
-0.483166 -0.111530 -0.868396
0.497650 0.683910 -0.533490
0.525204 -0.724492 0.446399
-0.094054 -0.355342 0.929992
0.380846 0.039822 0.923781
-0.404291 -0.031820 -0.914077
0.370794 0.562417 -0.739053
-0.689141 0.723277 0.044213
0.164891 -0.326105 -0.930842
-0.278090 0.013870 0.960455
0.153431 0.787842 -0.596459
-0.796534 0.552422 0.245689
-0.354104 -0.879111 -0.319022
-0.364918 -0.078008 -0.927766
-0.318705 -0.446634 -0.836029
0.775139 0.136062 0.616965
-0.777496 0.459269 -0.429619
0.169506 0.127524 0.977244
0.181988 0.438501 -0.880112
-0.382430 -0.899588 0.210923
-0.518966 0.363078 0.773854
0.384945 0.105998 -0.916832
0.065959 -0.159806 0.984942
0.403728 -0.675710 0.616781
-0.404212 -0.913361 -0.048842
0.272173 0.254296 0.928038
-0.122760 -0.042235 0.991537
0.435427 0.623854 -0.649007
0.178665 0.972138 -0.151742
-0.099730 0.374101 -0.922010
0.876648 0.480491 -0.024845
0.119304 0.719704 -0.683954
-0.288963 -0.221867 -0.931276
0.680407 -0.683143 0.265258
-0.042335 -0.688413 -0.724082
-0.027883 -0.385682 -0.922211
0.860633 -0.398188 0.317423
0.922106 0.120669 0.367640
0.239680 0.049636 0.969582
-0.667673 0.488255 -0.561979
-0.273870 0.229710 0.933932
0.034429 -0.055846 -0.997846
0.386879 0.002433 0.922127
0.152202 -0.078017 -0.985265
-0.225317 0.834719 0.502471
0.956352 0.079589 -0.281169
0.457115 -0.244115 -0.855251
-0.387726 -0.100495 -0.916280
0.352343 -0.018397 0.935690
0.699027 0.583545 0.413322
-0.717876 0.643487 -0.265667
0.691551 0.357738 0.627520
0.119964 0.989322 -0.082770
0.483021 -0.862296 0.152106
0.843869 0.395895 0.362148
0.998157 -0.047620 -0.037610
0.176570 0.076812 -0.981286
0.658741 0.646862 -0.384228
-0.955400 0.280559 0.092187
-0.080440 0.075530 0.993894
0.662210 0.668188 -0.339121
-0.226757 0.276138 -0.933985
-0.068015 -0.281221 -0.957230
-0.616571 0.677030 -0.401835
-0.893496 -0.166472 0.417074
-0.491482 0.762244 0.421225
0.473532 0.878014 0.069705
-0.985727 -0.168120 0.008862
-0.893578 0.044015 0.446744
-0.051698 -0.028997 -0.998242
-0.341332 0.635697 -0.692373
0.134254 0.023229 -0.990675
0.422719 -0.682491 0.596251
-0.359889 0.024572 -0.932672
0.456485 0.550523 0.698960
0.215200 -0.948445 -0.232680
0.444239 0.663167 -0.602379
-0.830173 -0.509759 -0.225742
0.504609 -0.851775 0.140885
0.166233 0.491379 -0.854934
-0.667502 -0.736668 -0.108451
-0.185908 -0.504727 -0.843023
0.319165 -0.843337 -0.432339
-0.314167 0.859231 0.403758
0.298617 -0.259123 0.918522
0.387792 -0.880501 0.272645
-0.021496 -0.025738 -0.999438
-0.030296 0.003603 -0.999534
-0.336960 0.458901 -0.822112
-0.977885 0.188251 0.091115
0.564745 0.815699 -0.125291
0.154417 0.892543 -0.423701
0.355114 -0.864548 0.355600
-0.002616 -0.010643 -0.999940
-0.090928 0.090259 -0.991759
-0.252847 0.662175 0.705403
-0.774583 -0.373652 -0.510299
0.510594 -0.192456 0.838006
-0.540477 0.178742 0.822153
0.317650 0.493555 0.809631
-0.048570 -0.931536 -0.360392
0.916171 -0.198551 0.348149
-0.874440 0.442133 0.199682
0.571192 -0.787784 0.230513
0.372303 -0.848938 -0.375094
0.067798 -0.290776 0.954386
-0.557754 0.641800 0.526312
-0.239354 -0.656004 0.715799
0.666952 -0.743662 -0.046282
0.827571 0.544834 0.135209
0.321851 0.930588 -0.174410
-0.993948 -0.096084 -0.053244
0.300514 0.088354 0.949676
-0.023695 -0.649935 0.759620
-0.097494 -0.758731 0.644067
-0.137349 0.106738 -0.984755
0.110165 -0.985751 0.127117
0.454821 0.485583 -0.746557
-0.637202 0.199341 0.744471
0.472648 -0.565518 -0.675865
-0.872837 0.214508 0.438341
-0.805931 0.576131 -0.136194
-0.382634 0.708449 0.593035
0.543813 -0.723167 0.425791
0.896982 0.326359 -0.298183
0.061452 0.058265 0.996408
0.147056 0.983697 -0.103514
0.296992 0.953172 0.057086
-0.559219 0.469947 -0.682952
-0.313663 0.894809 0.317698
-0.037922 -0.102888 -0.993970
