x y z
0.112325 0.403183 0.917769
0.467031 -0.232047 0.853266
-0.222445 -0.255635 -0.931487
-0.477412 0.030636 0.871743
-0.179849 0.102560 -0.983642
-0.348540 0.707802 0.601654
-0.522536 -0.538423 -0.646181
-0.537646 0.304954 -0.786071
0.740040 0.092351 -0.668668
0.118897 0.831856 -0.544562
-0.242377 0.479424 0.850817
-0.502960 -0.271232 0.828549
-0.411491 0.912661 0.085297
-0.905954 0.274832 -0.359074
-0.851911 0.516176 0.106449
0.127068 0.470675 0.863962
0.096241 -0.440607 0.910011
0.103665 -0.623120 0.777031
0.111710 -0.984760 0.146735
0.470730 0.628985 0.615533
-0.469840 0.018695 -0.875120
0.430939 -0.310143 0.827408
0.093359 -0.992171 0.200602
0.053686 0.385350 0.924376
0.094262 0.044452 -0.997388
0.143756 0.711662 -0.695342
-0.951677 -0.306782 -0.116261
-0.624007 -0.577508 -0.535664
0.146102 -0.268275 0.949081
0.169688 -0.188939 -0.958253
0.203313 -0.334855 -0.911196
0.841508 0.432614 0.333377
0.295206 -0.237960 -0.911954
-0.084710 0.333721 0.943179
0.065812 0.296147 -0.956002
0.119521 0.975431 -0.171510
-0.264562 0.170203 0.952446
-0.820608 0.522188 0.239909
-0.726370 0.700263 -0.066263
0.036706 -0.006133 0.995108
-0.085928 0.256608 0.953441
-0.394452 -0.302255 0.871883
-0.123389 0.624873 -0.776338
-0.827949 -0.422768 -0.325785
-0.086846 -0.962585 -0.213261
-0.913464 -0.427751 0.046519
-0.544471 0.067488 0.848314
-0.175155 0.952553 -0.220098
-0.582094 0.196042 -0.786138
-0.406982 0.408645 0.823702
-0.695836 0.512989 0.506899
-0.065541 -0.079115 0.983716
-0.418015 -0.380146 0.811845
-0.829889 -0.227628 0.493304
-0.070998 0.554951 0.840836
-0.093136 0.384206 0.922019
-0.527295 -0.689550 0.489777
0.478833 0.862266 0.004013
-0.347436 -0.906151 -0.112619
0.137253 0.461853 -0.859660
-0.553303 0.802238 -0.129030
0.920200 -0.344359 -0.249082
-0.716991 0.699856 0.023460
0.486085 0.094086 -0.868175
-0.104012 -0.036045 -1.000134
0.384307 0.374301 0.832812
0.036708 -0.605765 0.815849
0.472495 0.153316 -0.869602
-0.017225 0.384482 0.884275
-0.731370 0.007156 0.667081
0.033937 -0.902822 -0.447346
-0.013188 0.027788 0.990631
0.566391 -0.312299 0.750754
-0.725355 0.685287 -0.094706
-0.025922 0.061757 -1.010344
0.980422 0.054314 -0.264345
-0.358800 0.248151 -0.914922
0.053266 0.893130 0.430250
-0.014260 -0.356639 0.915220
-0.739531 0.571511 0.379182
-0.945353 0.361852 -0.022218
0.571766 0.317943 0.768939
-0.565799 0.462837 0.671998
-0.758055 0.136267 -0.639782
-0.948214 0.091339 -0.314088
-0.108549 0.239215 0.965394
0.598898 -0.383641 -0.707609
-0.774907 -0.560319 -0.286257
-0.869219 0.290467 0.400777
-0.073357 -0.149588 0.994525
0.110825 -0.060999 -0.997071
0.705749 -0.265367 0.661432
-0.472121 0.866093 0.144144
0.894740 0.206509 -0.358595
0.019558 0.077652 -0.988549
-0.562964 -0.360372 -0.725393
0.326367 0.023100 0.958263
0.053841 -0.013871 -0.986538
-0.069541 -0.738441 -0.642094
0.154720 0.988890 -0.085838
0.444209 -0.645503 0.629147
0.202833 0.015049 0.970289
-0.073593 0.059407 -0.999676
-0.456216 -0.365187 0.813723
-0.842542 -0.524451 0.126935
0.783568 -0.573122 -0.246480
-0.832894 0.550534 0.036839
-0.499151 0.407913 -0.753304
-0.815948 0.503413 -0.193838
0.717609 0.607580 -0.341742
-0.179297 -0.305414 -0.938774
0.015236 -0.128542 0.987895
0.691020 0.080852 -0.731342
-0.802360 0.031040 0.609024
0.364194 -0.642098 -0.667568
-0.003669 -0.033053 -0.995859
-0.147345 -0.238463 -0.969964
0.731607 0.424679 -0.555559
-0.678264 -0.517644 0.547304
0.874349 -0.247439 -0.454637
0.888407 -0.390783 -0.088269
0.981020 -0.209683 -0.113314
-0.067082 0.003697 0.992830
-0.222994 0.091252 -0.976041
0.035605 0.955846 0.293807
0.433835 0.526764 -0.747095
0.286393 0.693831 -0.663620
0.281929 0.323522 0.906444
-0.114050 0.112093 -0.982748
-0.084434 -0.510063 0.856342
-0.428951 0.668462 -0.611737
0.960699 -0.076179 -0.222588
-0.084807 -0.166865 -0.979497
0.685915 0.731926 0.062624
0.058373 -0.022720 -0.992219
0.498366 -0.519579 -0.692359
0.629157 0.024035 -0.782055
-0.808690 0.541878 0.255681
-0.771046 -0.142780 -0.611008
-0.300938 0.603518 -0.758621
0.584933 -0.403670 -0.711984
0.087082 0.509055 -0.871435
0.312903 -0.239339 0.918564
0.069086 -0.429328 -0.905049
-0.994536 0.066996 -0.026423
-0.227532 -0.964198 0.259539
0.119306 -0.958398 -0.238151
0.077378 -0.156714 0.993006
0.386368 0.157488 -0.915650
-0.612239 0.462782 -0.632576
-0.058040 0.048906 -1.004102
0.526445 0.470021 -0.705979
0.215662 0.403996 -0.879821
-0.465105 -0.852476 0.166159
-0.447070 -0.800366 -0.397072
-0.694397 -0.570457 0.438099
-0.861082 0.389821 -0.334268
0.271493 -0.086027 0.951289
0.162027 0.240516 0.957190
0.326726 -0.923410 0.137196
-0.423998 -0.642473 -0.623418
-0.205740 0.666502 0.712394
0.261937 0.101436 0.951226
-0.222170 -0.980007 0.054562
0.001074 0.975910 -0.151589
-0.423475 0.074003 -0.906588
0.018436 -0.022490 0.998083
-0.898195 0.385360 -0.199282
0.557839 0.217721 0.778969
-0.025177 -0.027375 1.001219
0.909325 0.129339 -0.388052
-0.159757 0.078617 -0.971400
0.793407 0.440600 0.357536
0.198832 -0.482254 -0.860006
0.530452 -0.447299 0.719510
0.001204 0.001853 -0.995818
-0.184354 -0.530787 0.833131
0.605953 -0.614822 -0.524994
0.310656 -0.508399 0.810604
0.118227 0.559334 -0.826823
0.721622 -0.137239 0.658177
-0.698426 0.113444 0.720633
0.938835 -0.222653 -0.248976
-0.538081 0.835301 -0.152939
-0.918154 0.368320 0.142078
-0.347065 0.940594 -0.035057
0.024291 -0.098587 -1.001193
-0.226206 -0.775850 0.586926
-0.387259 0.312036 -0.855731
0.460606 -0.722107 -0.522171
0.971073 -0.160977 -0.160863
0.120664 0.523337 0.854256
0.970117 -0.249279 -0.030617
-0.602152 0.383886 -0.719611
0.770764 -0.239690 0.586554
-0.849825 -0.179553 -0.467058
0.164152 0.145363 0.998145
0.621777 -0.484404 -0.599653
-0.041172 0.883099 0.489683
-0.662011 -0.000918 -0.732132
