x y z
-0.164133 -0.986058 -0.027382
0.048420 0.380178 -0.923645
0.213354 -0.317538 -0.923932
0.881018 -0.455856 0.126503
-0.596692 0.525836 0.606181
-0.362974 -0.860714 0.356961
-0.792142 0.607220 -0.061603
-0.579114 -0.802033 -0.146183
0.033812 0.115221 0.992764
0.755134 -0.176488 0.631367
-0.171094 0.271335 -0.947156
-0.799778 -0.435439 -0.413217
0.188796 -0.517943 -0.834321
-0.791980 -0.042957 0.609034
-0.336509 0.500602 -0.797596
-0.326002 0.802541 0.499651
-0.179374 -0.592534 0.785321
0.000443 0.001282 -0.999999
0.822551 -0.410298 -0.393783
-0.209665 -0.463619 0.860870
-0.402700 0.500276 -0.766522
-0.989253 -0.073956 -0.126135
-0.683499 0.668811 0.292440
-0.132903 0.268631 -0.954030
0.249420 -0.226348 0.941571
0.112086 0.884478 0.452919
-0.287776 -0.901284 0.323838
-0.537472 -0.192951 0.820911
0.200445 -0.162882 0.966070
-0.070014 -0.484151 0.872179
-0.178151 0.332563 0.926102
0.006922 -0.158349 0.987359
0.162345 -0.638257 0.752511
0.047901 0.076862 -0.995890
-0.261874 -0.294123 -0.919192
-0.082201 0.368148 -0.926126
-0.796608 0.576103 0.183085
0.944569 0.198978 0.261145
0.228586 0.157335 -0.960726
0.630376 0.752821 -0.189438
0.339943 -0.587085 0.734691
0.166451 0.682311 0.711860
-0.304600 -0.003264 0.952475
-0.035855 0.017415 -0.999205
0.099508 -0.241942 0.965175
0.231864 -0.084730 0.969051
-0.053525 0.994881 -0.085712
-0.153271 0.062712 -0.986192
-0.327387 -0.037253 0.944156
0.252395 0.925505 -0.282378
0.053108 0.343865 0.937516
0.081134 0.127135 -0.988562
-0.226151 0.922736 -0.312113
-0.606693 -0.447506 -0.657010
-0.059154 -0.195293 0.978959
0.616387 0.710540 0.339412
-0.163949 0.611016 -0.774455
-0.116925 0.221139 -0.968208
0.805506 0.244551 0.539773
-0.345085 0.933256 -0.099750
0.323671 0.841543 -0.432485
0.693556 0.221605 0.685472
-0.395783 -0.862172 -0.316252
-0.869893 0.170002 0.463017
-0.218753 -0.029361 0.975338
0.003874 -0.526045 0.850448
-0.136126 -0.192420 0.971825
0.819190 0.561212 -0.118195
0.660480 0.414431 -0.626109
0.698362 0.657052 -0.283852
-0.354940 0.634870 -0.686264
0.623705 -0.497334 -0.603034
-0.232904 0.099081 -0.967439
0.113607 -0.637073 -0.762385
0.073144 0.168709 0.982948
-0.002822 -0.945890 -0.324474
0.035834 -0.081013 0.996069
0.197650 0.415180 -0.888009
-0.842172 0.529022 0.104321
-0.612524 -0.402489 0.680307
-0.046503 -0.172716 0.983873
-0.374536 -0.274596 -0.885618
0.058072 -0.031614 -0.997812
-0.861049 -0.361905 -0.357237
0.696073 0.635959 -0.333224
-0.056454 -0.019020 0.998224
0.733233 -0.226989 0.640973
-0.009511 -0.016344 -0.999821
0.112317 0.007587 0.993643
0.171467 0.927203 -0.333008
0.203060 -0.807013 0.554524
-0.610137 0.623591 0.488740
-0.888911 0.350051 -0.295468
-0.405895 0.913438 0.029663
0.216990 0.392288 0.893883
0.180478 0.980053 -0.083211
0.158096 -0.110044 0.981273
0.167520 0.839616 -0.516703
-0.058300 0.517898 -0.853453
0.879490 -0.461338 -0.116893
0.475803 0.828290 -0.295885
0.344738 -0.479245 -0.807143
0.592133 0.086813 -0.801151
0.829111 -0.497537 -0.255015
-0.322853 -0.862296 -0.390142
-0.275012 0.196654 -0.941114
-0.194095 0.980264 -0.037557
-0.918218 -0.157038 -0.363614
-0.048324 -0.396222 0.916882
0.987321 0.036766 0.154420
0.009304 -0.994544 -0.103906
0.123088 -0.116296 0.985558
-0.344205 0.416495 0.841460
0.537544 -0.332841 -0.774766
-0.524190 -0.769703 0.364394
-0.997027 0.031363 -0.070378
-0.622394 0.373085 0.688065
-0.720620 0.310747 0.619792
-0.586576 -0.336111 -0.736857
0.606468 -0.128707 0.784621
0.981866 0.081531 -0.171151
0.183908 -0.550478 -0.814341
-0.026789 -0.259409 0.965396
0.616030 -0.785299 -0.061742
0.270769 -0.402032 -0.874674
-0.252219 0.070118 -0.965126
-0.155737 0.782305 0.603112
-0.336705 0.216022 0.916496
-0.041915 -0.098004 -0.994303
-0.669150 -0.647708 -0.364298
-0.420309 -0.852163 -0.311702
-0.096408 0.290418 0.952031
-0.864516 0.169867 0.473030
-0.767247 -0.532180 0.357932
0.736479 0.672880 -0.069504
-0.139400 0.178353 -0.974042
-0.647595 -0.279721 0.708786
0.465020 -0.563997 0.682395
-0.102606 0.122899 -0.987101
0.157279 -0.632148 0.758717
0.330485 0.013595 -0.943713
-0.120747 0.783907 0.609023
-0.034958 -0.516703 0.855451
-0.120622 -0.867837 -0.481985
0.038569 0.246918 0.968269
0.358927 -0.134174 0.923671
-0.259653 -0.399409 0.879234
-0.149650 -0.712469 0.685561
-0.864842 0.481865 -0.140905
0.278016 -0.110175 0.954237
0.173465 0.417891 -0.891783
-0.830147 -0.143376 0.538794
-0.146661 0.972477 -0.181051
-0.047033 0.664852 0.745493
0.714723 0.183802 0.674824
0.026871 0.407579 -0.912774
-0.630381 0.550254 -0.547577
0.020071 -0.589967 0.807178
0.734288 0.426142 -0.528417
-0.918433 0.038175 0.393729
-0.550229 -0.625180 -0.553532
-0.809069 -0.174752 0.561132
0.056471 0.279698 0.958426
0.909696 0.398823 0.115730
-0.664298 -0.660232 0.350431
-0.580434 0.512970 -0.632422
-0.135693 0.076382 -0.987802
-0.393220 -0.917646 0.057477
0.502550 -0.678973 0.535200
0.181275 -0.759885 -0.624271
0.210586 -0.971498 0.108832
-0.475183 0.616608 0.627691
-0.505367 -0.058253 -0.860936
0.770874 -0.377268 0.513247
0.249375 -0.211082 -0.945123
0.182123 -0.764085 0.618874
0.126305 0.507328 0.852447
-0.183663 0.130911 0.974233
0.527142 0.120910 -0.841131
-0.696125 0.392650 -0.601029
-0.038612 0.005742 -0.999238
0.781344 0.621267 0.059403
0.184251 0.393389 0.900720
-0.610982 0.770497 -0.181757
-0.977804 0.131862 0.162826
-0.556455 -0.134435 -0.819930
-0.118725 -0.100570 -0.987821
-0.246748 0.429669 0.868619
-0.166168 -0.388808 0.906210
-0.737059 -0.654168 -0.169729
-0.685091 0.433106 0.585721
-0.050901 -0.028572 0.998295
-0.985668 -0.134104 0.102350
0.581865 0.318874 0.748166
-0.899441 0.284783 0.331519
0.665248 -0.267731 -0.696969
-0.009840 -0.003746 -0.999945
-0.000091 0.000172 1.000000
0.675977 0.377213 0.633060
-0.175338 0.265574 -0.948012
