x y z
-0.983501 -0.174200 0.048787
-0.867885 0.421872 -0.262298
-0.654109 0.136616 0.743961
0.236881 0.971500 0.008711
0.048786 0.079593 -0.995633
0.314619 0.940306 -0.129768
-0.048190 0.803258 0.593678
0.052529 -0.086304 -0.994883
0.298613 0.627048 -0.719473
0.543307 0.499580 -0.674713
0.293743 0.909374 -0.294541
-0.496666 -0.795380 -0.347410
0.289713 -0.317325 0.902979
0.074638 0.317872 0.945191
0.969644 0.057238 -0.237727
-0.921010 -0.005888 -0.389494
-0.505809 -0.099539 0.856883
-0.039178 0.020498 0.999022
-0.326350 -0.076012 -0.942188
0.005287 0.087379 -0.996161
0.576788 0.432672 -0.692900
0.863684 0.501047 -0.054789
0.425720 0.741121 -0.519137
0.649864 0.112569 0.751668
-0.121900 -0.765019 0.632366
-0.108001 -0.610938 0.784277
0.122677 -0.785465 0.606626
-0.511878 -0.827009 -0.232458
-0.592045 -0.178423 -0.785905
0.506277 0.524875 -0.684244
0.837545 0.477927 0.264771
-0.104704 0.915768 -0.387822
-0.843711 0.439163 0.308688
-0.684932 0.108249 -0.720520
0.093545 -0.185019 -0.978273
0.383797 0.399187 -0.832676
-0.126941 -0.312329 -0.941454
0.001342 0.637887 -0.770129
-0.489184 0.830730 -0.265683
0.326112 0.337053 -0.883202
0.160042 -0.875864 -0.455246
-0.088952 0.522283 0.848120
0.006769 -0.001511 0.999976
-0.017596 -0.881143 0.472522
-0.154493 -0.984397 0.084228
0.870216 0.163670 -0.464690
0.298047 -0.921500 0.249010
0.303479 -0.697199 0.649472
0.245452 -0.019258 -0.969217
-0.140958 0.021145 0.989790
-0.127743 0.483578 -0.865930
-0.274972 0.960945 0.031238
-0.062563 -0.044697 0.997040
-0.701970 0.638311 0.315906
-0.745920 -0.241804 -0.620592
-0.484565 0.412654 -0.771306
0.877885 -0.459260 0.135637
0.718216 0.588698 0.370945
-0.559629 -0.211486 0.801305
-0.785540 -0.110844 0.608803
-0.149707 -0.215713 0.964912
-0.976493 0.066425 0.205058
0.497834 -0.459739 -0.735392
-0.707475 0.597832 0.376928
-0.017276 0.014379 -0.999747
0.508230 0.780982 -0.363001
-0.403625 -0.854944 0.325818
0.496041 -0.080567 -0.864553
0.392014 -0.203839 -0.897092
0.591546 -0.500486 -0.632129
0.342584 -0.131425 0.930249
0.363652 0.247224 -0.898130
0.249799 0.539793 -0.803880
0.287045 -0.344090 -0.893984
0.028824 0.074546 -0.996801
0.155132 -0.094926 0.983323
0.602060 0.145162 -0.785145
-0.006490 -0.194289 -0.980923
-0.028270 0.080625 -0.996343
-0.146269 -0.620582 -0.770379
-0.749564 -0.077884 0.657334
-0.975943 -0.028670 -0.216134
0.897641 0.415897 0.145847
0.265305 -0.145144 -0.953177
-0.413052 0.062372 0.908569
-0.049865 0.056007 0.997184
-0.064977 -0.120917 -0.990534
0.111283 0.235509 0.965480
0.377477 0.804981 -0.457731
0.378567 -0.923847 0.056510
-0.556373 -0.721962 -0.411365
0.959815 0.187339 -0.208947
-0.883131 -0.325895 -0.337449
0.033959 -0.148552 0.988321
-0.008361 -0.096002 -0.995346
0.008596 0.031666 -0.999462
0.116823 0.319930 0.940211
0.247380 -0.786061 -0.566491
-0.277322 -0.016871 0.960629
-0.134880 -0.060736 0.988999
-0.273199 0.306541 0.911809
-0.261821 0.823347 0.503537
-0.009509 -0.023633 0.999675
0.221031 0.013373 -0.975175
-0.215570 -0.098016 0.971557
-0.807268 0.084546 -0.584097
-0.181516 0.827080 -0.531969
-0.471493 -0.046044 0.880667
-0.926152 -0.314383 0.208339
-0.241464 0.857557 0.454192
0.610480 0.068306 0.789081
0.253965 -0.382108 0.888536
0.988352 -0.137816 -0.064548
0.637187 0.149711 0.756028
-0.550001 0.789905 0.271198
-0.188926 -0.825404 -0.531992
0.736889 0.115065 -0.666149
-0.135087 0.164192 -0.977135
0.878965 0.323430 -0.350447
0.463697 0.833964 -0.299148
0.909731 0.409592 0.068004
-0.643242 -0.398368 -0.653868
0.464798 -0.880062 -0.097231
-0.069983 0.992616 -0.099074
-0.882095 -0.426856 -0.199255
-0.419632 -0.390145 0.819571
0.699623 0.534788 -0.473845
0.920879 -0.314868 -0.229871
0.005919 -0.278979 -0.960279
-0.311890 -0.907943 -0.279936
-0.174336 -0.491179 -0.853434
-0.468005 0.405193 0.785360
0.984087 -0.170482 0.050090
0.386478 0.839613 0.381686
-0.137633 -0.914701 -0.379973
-0.054803 0.036942 0.997814
-0.693806 0.216572 0.686826
0.966231 -0.130059 -0.222448
0.950336 0.172389 -0.259122
0.460518 -0.757893 -0.462084
-0.911586 0.331861 -0.242653
0.236908 -0.964734 0.114728
-0.816005 -0.094592 -0.570253
-0.873579 -0.317132 0.369170
0.759292 -0.581533 -0.292053
0.067916 0.200557 -0.977325
-0.212421 0.064187 -0.975068
-0.579507 -0.463495 0.670331
-0.472064 -0.420894 0.774599
-0.002544 0.050893 0.998701
-0.139898 0.172879 -0.974957
0.295341 -0.675298 0.675830
-0.936073 -0.023649 -0.351010
-0.119687 -0.431764 0.894010
0.065698 -0.147039 0.986946
0.454390 0.572133 0.682784
0.704305 -0.418405 0.573491
-0.901823 0.230217 0.365672
0.634860 -0.694785 -0.337975
0.152789 -0.939555 -0.306419
-0.970113 0.118316 0.211852
-0.295231 -0.007704 0.955395
-0.606436 0.490388 -0.625903
-0.137691 0.624305 0.768950
-0.241666 -0.113467 0.963703
0.012783 0.052604 -0.998534
0.052243 0.031948 0.998123
-0.704058 -0.256756 0.662101
0.841001 -0.093864 0.532830
-0.226219 0.622426 -0.749274
-0.407730 -0.775957 0.481297
0.313922 0.802036 -0.508124
-0.244605 0.506012 0.827116
0.880644 -0.408423 -0.240118
-0.362764 -0.459872 0.810506
0.440973 0.057666 -0.895666
0.213218 0.927623 -0.306682
0.130783 0.746039 0.652933
0.907050 -0.232820 -0.350791
-0.701175 0.427852 0.570348
-0.114613 0.033423 0.992848
-0.313536 0.935798 -0.161177
0.828856 0.513924 0.221086
-0.491414 0.709989 0.504408
-0.835190 -0.538603 0.111199
0.050722 -0.889780 0.453563
-0.358503 0.203375 -0.911106
-0.768045 0.169401 -0.617584
-0.275223 0.951659 -0.136372
-0.308495 0.302894 0.901713
-0.532107 0.280962 -0.798701
0.330065 -0.606110 0.723663
-0.265318 0.105337 0.958390
0.665588 0.312468 0.677759
0.213680 -0.515011 -0.830123
0.576426 0.574969 0.580641
0.670154 -0.285384 -0.685164
0.027274 0.804260 -0.593652
-0.012124 -0.005205 -0.999913
0.677646 0.336697 -0.653781
